VERSION  1
FIELDS x y z 
SIZE 4 4 4 
TYPE F F F 
COUNT 1 1 1 
WIDTH 1909
HEIGHT 1
VIEWPOINT 0 0 0 1 0 0 0 
POINTS 1909
DATA ascii 
123.443 -106.227 310.413
130.842 -111.055 324.523
132.629 -111.055 324.523
136.485 -112.764 329.515
132.199 -107.789 314.978
135.933 -109.398 319.679
131.792 -104.709 305.978
129.77 -101.801 297.479
129.609 -100.406 293.404
133.047 -101.801 297.479
134.686 -101.801 297.479
138.245 -103.234 301.669
136.074 -100.406 293.404
137.69 -100.406 293.404
125.547 -90.4894 264.426
116.901 -83.2914 243.392
116.913 -82.3556 240.657
119.583 -83.2914 243.392
128.208 -88.309 258.054
126.579 -86.2311 251.982
132.649 -89.3859 261.201
137.44 -91.6206 267.731
135.527 -89.3859 261.201
135.315 -88.309 258.054
136.737 -88.309 258.054
136.514 -87.2577 254.982
137.918 -87.2577 254.982
136.083 -85.2284 249.052
135.875 -84.2488 246.19
135.671 -83.2914 243.392
44.2911 -15.2701 44.6219
44.7827 -15.2701 44.6219
45.0285 -15.2701 44.6219
45.2743 -15.2701 44.6219
45.5201 -15.2701 44.6219
45.7659 -15.2701 44.6219
46.0117 -15.2701 44.6219
46.2575 -15.2701 44.6219
46.5033 -15.2701 44.6219
46.7491 -15.2701 44.6219
46.9949 -15.2701 44.6219
47.2407 -15.2701 44.6219
-68.2688 -64.3898 191.237
-74.5359 -71.4026 212.064
-74.1014 -72.1166 214.185
-72.9216 -72.1166 214.185
-71.0315 -71.4026 212.064
-71.2747 -72.8451 216.348
-70.7981 -73.5884 218.556
-68.8912 -72.8451 216.348
-67.6995 -72.8451 216.348
-67.879 -74.347 220.809
-66.6627 -74.347 220.809
-65.4464 -74.347 220.809
-64.23 -74.347 220.809
-62.3707 -73.5884 218.556
-61.1668 -73.5884 218.556
-59.9629 -73.5884 218.556
-58.759 -73.5884 218.556
-57.5551 -73.5884 218.556
-56.3512 -73.5884 218.556
-55.1473 -73.5884 218.556
-54.4995 -74.347 220.809
-53.8382 -75.1215 223.109
-53.163 -75.9122 225.458
-51.3802 -75.1215 223.109
-51.769 -77.5447 230.306
-51.0493 -78.3876 232.81
-50.3137 -79.249 235.368
-49.5619 -80.1296 237.983
-49.3475 -81.9507 243.392
-48.0068 -81.9507 243.392
-47.2025 -82.8927 246.19
-46.3795 -83.8565 249.052
-45.0076 -83.8565 249.052
-43.6357 -83.8565 249.052
-43.2701 -85.8531 254.982
-41.8655 -85.8531 254.982
-40.9484 -86.8875 258.054
-40.009 -87.9471 261.201
-38.5702 -87.9471 261.201
-37.1313 -87.9471 261.201
-36.1332 -89.0329 264.426
-34.2537 -87.9471 261.201
-33.22 -89.0329 264.426
-31.7634 -89.0329 264.426
-31.0741 -91.2869 271.12
-29.9599 -92.4572 274.596
-28.4473 -92.4572 274.596
-28.0121 -96.1555 285.58
-26.439 -96.1555 285.58
-25.2019 -97.4549 289.439
-23.9309 -98.7899 293.404
-22.0132 -97.4549 289.439
-21.2816 -101.573 301.669
-20.1885 -104.517 310.413
-18.7504 -106.054 314.978
-16.5292 -103.024 305.978
-15.0588 -104.517 310.413
-12.9729 -101.573 301.669
-11.1541 -100.162 297.479
-9.64942 -101.573 301.669
-7.98769 -101.573 301.669
-6.32595 -101.573 301.669
-4.94268 -107.637 319.679
-3.13495 -106.054 314.978
0.307968 -97.4549 289.439
1.85227 -94.8903 281.822
5.02318 -96.1555 285.58
6.2623 -91.2869 271.12
17.5277 -66.162 196.5
18.4409 -65.5606 194.714
19.6925 -66.162 196.5
20.9673 -66.7746 198.319
22.0597 -66.7746 198.319
23.589 -68.0345 202.061
24.7021 -68.0345 202.061
26.3115 -69.3429 205.947
27.446 -69.3429 205.947
28.5805 -69.3429 205.947
30.2975 -70.7026 209.985
31.1489 -70.0161 207.947
33.2632 -72.1166 214.185
33.7676 -70.7026 209.985
35.6228 -72.1166 214.185
36.4383 -71.4026 212.064
37.9825 -72.1166 214.185
39.5579 -72.8451 216.348
42.9172 -76.7198 227.856
42.8062 -74.347 220.809
44.9493 -75.9122 225.458
73.4373 -101.573 301.669
77.2758 -104.517 310.413
80.1472 -106.054 314.978
79.5428 -103.024 305.978
78.9719 -100.162 297.479
81.7459 -101.573 301.669
84.5992 -103.024 305.978
86.2847 -103.024 305.978
90.5575 -106.054 314.978
90.955 -104.517 310.413
92.6649 -104.517 310.413
91.7163 -101.573 301.669
93.3781 -101.573 301.669
95.0398 -101.573 301.669
99.5045 -104.517 310.413
102.703 -106.054 314.978
104.438 -106.054 314.978
136.684 -124.339 369.284
127.709 -114.471 339.976
136.06 -120.194 356.975
133.574 -116.317 345.46
135.477 -116.317 345.46
129.054 -109.268 324.523
139.283 -116.317 345.46
136.774 -112.682 334.664
143.089 -116.317 345.46
138.3 -110.949 329.515
144.563 -114.471 339.976
137.694 -107.637 319.679
137.404 -106.054 314.978
135.163 -103.024 305.978
138.832 -104.517 310.413
144.737 -107.637 319.679
146.498 -107.637 319.679
150.506 -109.268 324.523
179.488 -128.78 382.473
125.547 -89.0329 264.426
114.304 -80.1296 237.983
114.344 -79.249 235.368
118.239 -81.0299 240.657
122.313 -82.8927 246.19
123.67 -82.8927 246.19
131.051 -86.8875 258.054
137.44 -90.1458 267.731
137.2 -89.0329 264.426
133.705 -85.8531 254.982
136.737 -86.8875 258.054
134.908 -84.8431 251.982
134.711 -83.8565 249.052
134.519 -82.8927 246.19
134.331 -81.9507 243.392
44.2911 -15.0243 44.6219
44.5369 -15.0243 44.6219
44.7827 -15.0243 44.6219
45.0285 -15.0243 44.6219
45.2743 -15.0243 44.6219
45.5201 -15.0243 44.6219
45.7659 -15.0243 44.6219
46.0117 -15.0243 44.6219
46.2575 -15.0243 44.6219
46.5033 -15.0243 44.6219
46.7491 -15.0243 44.6219
46.9949 -15.0243 44.6219
47.2407 -15.0243 44.6219
-86.8876 -80.61 243.392
-84.5857 -79.7043 240.657
-80.5451 -77.1052 232.81
-79.2626 -77.1052 232.81
-74.731 -73.8925 223.109
-75.0659 -75.4647 227.856
-74.6044 -76.2761 230.306
-71.0441 -73.8925 223.109
-69.0953 -73.1307 220.809
-68.5861 -73.8925 223.109
-66.6627 -73.1307 220.809
-65.4464 -73.1307 220.809
-64.23 -73.1307 220.809
-63.0137 -73.1307 220.809
-61.1668 -72.3845 218.556
-59.9629 -72.3845 218.556
-58.759 -72.3845 218.556
-56.9737 -71.6533 216.348
-56.3512 -72.3845 218.556
-55.1473 -72.3845 218.556
-53.9434 -72.3845 218.556
-53.2832 -73.1307 220.809
-52.0668 -73.1307 220.809
-51.9211 -74.6703 225.458
-51.769 -76.2761 230.306
-51.0493 -77.1052 232.81
-50.8728 -78.8186 237.983
-50.1187 -79.7043 240.657
-49.3475 -80.61 243.392
-48.5586 -81.5365 246.19
-48.3132 -83.455 251.982
-46.9251 -83.455 251.982
-45.5371 -83.455 251.982
-44.6746 -84.4486 254.982
-43.2701 -84.4486 254.982
-42.3699 -85.466 258.054
-40.9484 -85.466 258.054
-40.009 -86.5083 261.201
-38.5702 -86.5083 261.201
-37.5898 -87.5763 264.426
-36.1332 -87.5763 264.426
-34.6766 -87.5763 264.426
-33.22 -87.5763 264.426
-31.7634 -87.5763 264.426
-31.0741 -89.7934 271.12
-29.5807 -89.7934 271.12
-28.4473 -90.9446 274.596
-28.0121 -94.5824 285.58
-22.9433 -99.911 301.669
-21.5856 -101.338 305.978
-20.4854 -104.319 314.978
-19.0302 -105.876 319.679
-16.7687 -102.807 310.413
-15.5083 -105.876 319.679
-13.3489 -102.807 310.413
-11.3112 -99.911 301.669
-9.64942 -99.911 301.669
-8.1018 -101.338 305.978
-6.32595 -99.911 301.669
-4.94268 -105.876 319.679
-3.22995 -107.48 324.523
0.307968 -95.8605 289.439
1.78193 -89.7934 271.12
5.09107 -95.8605 289.439
6.42496 -92.1257 278.162
17.3684 -64.488 194.714
18.4409 -64.488 194.714
19.8749 -65.6822 198.319
20.9673 -65.6822 198.319
22.2659 -66.2961 200.173
23.8137 -67.5588 203.986
24.9373 -67.5588 203.986
26.3115 -68.2085 205.947
27.7125 -68.8707 207.947
28.8579 -68.8707 207.947
30.2975 -69.5459 209.985
31.1489 -68.8707 207.947
33.2632 -70.9368 214.185
33.7676 -69.5459 209.985
35.9826 -71.6533 216.348
36.8027 -70.9368 214.185
38.7576 -72.3845 218.556
39.9615 -72.3845 218.556
42.0231 -73.8925 223.109
41.9414 -71.6533 216.348
44.481 -73.8925 223.109
65.8627 -98.5233 297.479
68.4521 -99.911 301.669
70.1138 -99.911 301.669
71.7755 -99.911 301.669
75.5659 -102.807 310.413
78.4122 -104.319 314.978
82.5759 -107.48 324.523
83.1044 -105.876 319.679
84.8653 -105.876 319.679
84.1154 -102.807 310.413
87.0874 -104.319 314.978
87.5352 -102.807 310.413
91.9091 -105.876 319.679
93.67 -105.876 319.679
95.431 -105.876 319.679
94.3748 -102.807 310.413
97.4977 -104.319 314.978
96.3975 -101.338 305.978
99.5045 -102.807 310.413
102.703 -104.319 314.978
107.603 -107.48 324.523
116.448 -114.414 345.46
145.126 -133.843 404.122
128.027 -116.29 351.123
139.082 -124.451 375.763
134.094 -118.228 356.975
138.366 -120.232 363.025
138.027 -118.228 356.975
137.698 -116.29 351.123
135.2 -112.598 339.976
143.926 -118.228 356.975
141.186 -114.414 345.46
147.859 -118.228 356.975
142.691 -112.598 339.976
146.895 -114.414 345.46
144.148 -110.839 334.664
145.991 -110.839 334.664
141.215 -105.876 319.679
145.143 -107.48 324.523
153.927 -112.598 339.976
158.313 -114.414 345.46
168.362 -120.232 363.025
182.752 -128.976 389.427
181.595 -126.673 382.473
115.588 -79.7043 240.657
118.242 -80.61 243.392
120.957 -81.5365 246.19
134.7 -89.7934 271.12
143.457 -94.5824 285.58
141.263 -92.1257 278.162
146.603 -94.5824 285.58
142.477 -90.9446 274.596
136.966 -86.5083 261.201
138.404 -86.5083 261.201
134.908 -83.455 251.982
133.162 -81.5365 246.19
44.5369 -14.7785 44.6219
44.7827 -14.7785 44.6219
45.0285 -14.7785 44.6219
45.2743 -14.7785 44.6219
45.5201 -14.7785 44.6219
45.7659 -14.7785 44.6219
46.0117 -14.7785 44.6219
46.2575 -14.7785 44.6219
46.5033 -14.7785 44.6219
46.7491 -14.7785 44.6219
46.9949 -14.7785 44.6219
47.2407 -14.7785 44.6219
47.4865 -14.7785 44.6219
-86.5302 -80.1804 246.19
-82.3349 -77.5077 237.983
-80.1336 -76.656 235.368
-75.5177 -73.4284 225.458
-75.0659 -74.2095 227.856
-73.8108 -74.2095 227.856
-71.7919 -73.4284 225.458
-68.3903 -71.1806 218.556
-67.879 -71.9144 220.809
-66.6627 -71.9144 220.809
-65.4464 -71.9144 220.809
-64.23 -71.9144 220.809
-62.3707 -71.1806 218.556
-60.549 -70.4616 216.348
-59.9629 -71.1806 218.556
-58.759 -71.1806 218.556
-56.9737 -70.4616 216.348
-56.3512 -71.1806 218.556
-55.1473 -71.1806 218.556
-53.9434 -71.1806 218.556
-52.7394 -71.1806 218.556
-52.0668 -71.9144 220.809
-51.3802 -72.6635 223.109
-51.2183 -74.2095 227.856
-50.5004 -75.0075 230.306
-50.3137 -76.656 235.368
-49.0172 -76.656 235.368
-49.3475 -79.2693 243.392
-48.5586 -80.1804 246.19
-47.7514 -81.1127 249.052
-46.9251 -82.067 251.982
-45.5371 -82.067 251.982
-44.149 -82.067 251.982
-43.2701 -83.044 254.982
-42.3699 -84.0445 258.054
-40.9484 -84.0445 258.054
-40.009 -85.0695 261.201
-38.5702 -85.0695 261.201
-37.1313 -85.0695 261.201
-36.1332 -86.1197 264.426
-34.6766 -86.1197 264.426
-33.22 -86.1197 264.426
-31.7634 -86.1197 264.426
-30.6857 -87.1962 267.731
-29.5807 -88.2999 271.12
-28.4473 -89.432 274.596
-27.6435 -91.7855 281.822
-26.439 -93.0093 285.58
-23.2711 -99.6528 305.978
-20.7912 -104.115 319.679
-19.0302 -104.115 319.679
-17.0153 -102.584 314.978
-15.5083 -104.115 319.679
-13.5452 -102.584 314.978
-11.639 -101.097 310.413
-9.64942 -98.2492 301.669
-8.1018 -99.6528 305.978
-6.32595 -98.2492 301.669
-5.01757 -105.692 324.523
-3.43833 -112.511 345.46
0.316522 -96.8847 297.479
1.85227 -91.7855 281.822
3.31738 -89.432 274.596
4.95709 -91.7855 281.822
6.5095 -91.7855 281.822
17.3684 -63.4154 194.714
18.6101 -63.9972 196.5
20.0606 -65.1934 200.173
21.1633 -65.1934 200.173
22.476 -65.8084 202.061
23.8137 -66.4352 203.986
24.9373 -66.4352 203.986
26.3115 -67.074 205.947
27.7125 -67.7252 207.947
28.8579 -67.7252 207.947
30.2975 -68.3892 209.985
31.1489 -67.7252 207.947
32.9338 -69.0663 212.064
33.7676 -68.3892 209.985
35.6228 -69.757 214.185
36.8027 -69.757 214.185
38.3661 -70.4616 216.348
39.9615 -71.1806 218.556
41.1655 -71.1806 218.556
41.1109 -69.0663 212.064
43.5733 -71.1806 218.556
65.8627 -96.8847 297.479
68.4521 -98.2492 301.669
71.1154 -99.6528 305.978
72.8009 -99.6528 305.978
75.5659 -101.097 310.413
79.5825 -104.115 319.679
83.8463 -107.318 329.515
85.6615 -107.318 329.515
90.2536 -110.725 339.976
86.6263 -104.115 319.679
92.5304 -108.995 334.664
92.922 -107.318 329.515
96.2173 -108.995 334.664
98.0608 -108.995 334.664
99.9043 -108.995 334.664
100.182 -107.318 329.515
103.591 -108.995 334.664
100.714 -104.115 319.679
104.027 -105.692 324.523
105.815 -105.692 324.523
120.369 -118.232 363.025
124.479 -120.271 369.284
131.031 -124.566 382.473
135.245 -124.566 382.473
137.352 -124.566 382.473
130.161 -116.262 356.975
132.128 -116.262 356.975
131.896 -114.356 351.123
133.83 -114.356 351.123
131.454 -110.725 339.976
133.327 -110.725 339.976
131.04 -107.318 329.515
139.283 -112.511 345.46
141.186 -112.511 345.46
143.089 -112.511 345.46
140.461 -108.995 334.664
142.304 -108.995 334.664
137.694 -104.115 319.679
150.701 -112.511 345.46
171.061 -124.566 382.473
176.316 -126.831 389.427
178.462 -126.831 389.427
187.422 -131.617 404.122
189.648 -131.617 404.122
188.321 -129.18 396.639
141.884 -93.0093 285.58
147.387 -95.5575 293.404
141.263 -90.5934 278.162
144.674 -91.7855 281.822
142.477 -89.432 274.596
140.39 -87.1962 267.731
138.404 -85.0695 261.201
133.339 -81.1127 249.052
128.724 -77.5077 237.983
44.5369 -14.5327 44.6219
44.7827 -14.5327 44.6219
45.2743 -14.5327 44.6219
45.5201 -14.5327 44.6219
45.7659 -14.5327 44.6219
46.0117 -14.5327 44.6219
46.2575 -14.5327 44.6219
46.5033 -14.5327 44.6219
46.7491 -14.5327 44.6219
46.9949 -14.5327 44.6219
47.2407 -14.5327 44.6219
47.4865 -14.5327 44.6219
-89.6206 -81.6394 254.982
-86.1645 -79.7408 249.052
-81.9344 -77.0529 240.657
-76.321 -72.9544 227.856
-75.8731 -73.7388 230.306
-73.8108 -72.9544 227.856
-71.7919 -72.1864 225.458
-69.8151 -71.4345 223.109
-67.879 -70.6981 220.809
-67.3571 -71.4345 223.109
-65.4464 -70.6981 220.809
-64.23 -70.6981 220.809
-62.3707 -69.9767 218.556
-60.549 -69.2698 216.348
-59.9629 -69.9767 218.556
-58.759 -69.9767 218.556
-56.9737 -69.2698 216.348
-56.3512 -69.9767 218.556
-54.5902 -69.2698 216.348
-53.9434 -69.9767 218.556
-53.2832 -70.6981 220.809
-52.0668 -70.6981 220.809
-51.9211 -72.1864 225.458
-51.769 -73.7388 230.306
-50.5004 -73.7388 230.306
-50.3137 -75.3595 235.368
-49.5619 -76.1968 237.983
-48.7931 -77.0529 240.657
-48.0068 -77.9286 243.392
-47.7514 -79.7408 249.052
-46.3795 -79.7408 249.052
-45.5371 -80.679 251.982
-44.6746 -81.6394 254.982
-43.7914 -82.623 258.054
-42.3699 -82.623 258.054
-40.9484 -82.623 258.054
-40.009 -83.6306 261.201
-38.5702 -83.6306 261.201
-37.5898 -84.6631 264.426
-36.1332 -84.6631 264.426
-35.1101 -85.7214 267.731
-33.6353 -85.7214 267.731
-32.1605 -85.7214 267.731
-31.0741 -86.8065 271.12
-29.9599 -87.9194 274.596
-28.4473 -87.9194 274.596
-27.6435 -90.2331 281.822
-26.7963 -92.6718 289.439
-25.9019 -95.246 297.479
-24.9565 -97.9673 305.978
-23.6083 -99.3871 310.413
-21.5856 -97.9673 305.978
-20.4854 -100.849 314.978
-19.0302 -102.354 319.679
-17.0153 -100.849 314.978
-15.7433 -103.905 324.523
-13.7474 -102.354 319.679
-11.9864 -102.354 319.679
-10.0751 -100.849 314.978
-8.34009 -100.849 314.978
-6.60504 -100.849 314.978
-5.09476 -105.503 329.515
-3.55294 -114.295 356.975
-1.61345 -116.232 363.025
0.356088 -107.152 334.664
2.01104 -97.9673 305.978
3.59383 -95.246 297.479
5.16081 -93.9413 293.404
7.73003 -107.152 334.664
17.3684 -62.3428 194.714
18.7824 -63.4973 198.319
20.2499 -64.6954 202.061
21.1633 -64.0908 200.173
22.476 -64.6954 202.061
23.8137 -65.3115 203.986
24.9373 -65.3115 203.986
26.3115 -65.9395 205.947
27.7125 -66.5797 207.947
28.8579 -66.5797 207.947
30.2975 -67.2325 209.985
31.1489 -66.5797 207.947
32.6109 -67.2325 209.985
33.4398 -66.5797 207.947
35.6228 -68.5771 214.185
36.4383 -67.8981 212.064
37.9825 -68.5771 214.185
39.1623 -68.5771 214.185
40.3421 -68.5771 214.185
40.3126 -66.5797 207.947
41.8645 -67.2325 209.985
45.71 -71.4345 223.109
45.5166 -69.2698 216.348
47.185 -69.9767 218.556
68.7263 -99.3871 310.413
70.4362 -99.3871 310.413
72.1461 -99.3871 310.413
73.856 -99.3871 310.413
77.8216 -102.354 319.679
83.3129 -107.152 334.664
86.5081 -108.853 339.976
88.3809 -108.853 339.976
91.7093 -110.608 345.46
90.6869 -107.152 334.664
97.081 -112.422 351.123
97.4182 -110.608 345.46
100.949 -112.422 351.123
102.883 -112.422 351.123
106.565 -114.295 356.975
106.752 -112.422 351.123
108.686 -112.422 351.123
108.836 -110.608 345.46
108.981 -108.853 339.976
112.642 -110.608 345.46
129.123 -124.686 389.427
128.924 -122.459 382.473
133.413 -124.686 389.427
135.559 -124.686 389.427
137.704 -124.686 389.427
137.352 -122.459 382.473
134.65 -118.236 369.284
136.684 -118.236 369.284
134.094 -114.295 356.975
136.06 -114.295 356.975
133.574 -110.608 345.46
135.477 -110.608 345.46
135.2 -108.853 339.976
141.566 -112.422 351.123
141.186 -110.608 345.46
140.818 -108.853 339.976
140.461 -107.152 334.664
144.563 -108.853 339.976
139.78 -103.905 324.523
173.027 -126.995 396.639
181.951 -131.879 411.894
180.744 -129.391 404.122
182.97 -129.391 404.122
181.766 -126.995 396.639
187.422 -129.391 404.122
189.648 -129.391 404.122
188.321 -126.995 396.639
183.702 -122.459 382.473
167.827 -110.608 345.46
140.31 -91.4362 285.58
149.877 -96.5875 301.669
149.434 -95.246 297.479
146.99 -92.6718 289.439
148.584 -92.6718 289.439
146.226 -90.2331 281.822
143.99 -87.9194 274.596
143.66 -86.8065 271.12
131.806 -78.8243 246.19
44.7827 -14.2869 44.6219
45.0285 -14.2869 44.6219
45.2743 -14.2869 44.6219
45.5201 -14.2869 44.6219
45.7659 -14.2869 44.6219
46.0117 -14.2869 44.6219
46.2575 -14.2869 44.6219
46.5033 -14.2869 44.6219
46.7491 -14.2869 44.6219
46.9949 -14.2869 44.6219
47.2407 -14.2869 44.6219
47.4865 -14.2869 44.6219
47.7323 -14.2869 44.6219
-82.8655 -76.5878 243.392
-77.1417 -72.4702 230.306
-76.6978 -73.2579 232.81
-73.8108 -71.6992 227.856
-71.0441 -70.2055 223.109
-70.55 -70.9445 225.458
-69.308 -70.9445 225.458
-68.0661 -70.9445 225.458
-66.1281 -70.2055 223.109
-64.8991 -70.2055 223.109
-62.3707 -68.7728 218.556
-60.549 -68.0781 216.348
-59.9629 -68.7728 218.556
-58.1655 -68.0781 216.348
-56.9737 -68.0781 216.348
-56.3512 -68.7728 218.556
-54.5902 -68.0781 216.348
-53.9434 -68.7728 218.556
-52.7394 -68.7728 218.556
-52.0668 -69.4817 220.809
-51.3802 -70.2055 223.109
-51.2183 -71.6992 227.856
-50.5004 -72.4702 230.306
-50.3137 -74.063 235.368
-49.5619 -74.8859 237.983
-48.7931 -75.7273 240.657
-48.0068 -76.5878 243.392
-47.7514 -78.3689 249.052
-46.3795 -78.3689 249.052
-45.5371 -79.2909 251.982
-44.6746 -80.2349 254.982
-43.7914 -81.2016 258.054
-42.3699 -81.2016 258.054
-40.9484 -81.2016 258.054
-40.009 -82.1918 261.201
-38.5702 -82.1918 261.201
-37.5898 -83.2065 264.426
-36.1332 -83.2065 264.426
-35.1101 -84.2466 267.731
-34.061 -85.313 271.12
-32.5676 -85.313 271.12
-31.4725 -86.4068 274.596
-30.349 -87.529 278.162
-28.8167 -87.529 278.162
-28.0121 -89.8631 285.58
-26.7963 -91.0774 289.439
-25.9019 -93.6074 297.479
-24.9565 -96.2818 305.978
-23.9555 -99.1137 314.978
-22.2204 -99.1137 314.978
-20.4854 -99.1137 314.978
-19.3186 -102.117 324.523
-17.2693 -100.593 319.679
-15.9855 -103.688 329.515
-14.1704 -103.688 329.515
-12.5483 -105.308 334.664
-10.7048 -105.308 334.664
-8.86134 -105.308 334.664
-6.90989 -103.688 329.515
-5.17437 -105.308 334.664
-3.55294 -112.329 356.975
-1.61345 -114.233 363.025
0.345297 -102.117 324.523
2.16573 -103.688 329.515
3.69651 -96.2818 305.978
5.88654 -105.308 334.664
7.97939 -108.705 345.46
9.72548 -106.98 339.976
11.7853 -108.705 345.46
13.2605 -105.308 334.664
17.69 -62.4049 198.319
19.1368 -63.5824 202.061
20.6393 -64.8051 205.947
21.5664 -64.1879 203.986
22.69 -64.1879 203.986
23.8137 -64.1879 203.986
25.1771 -64.8051 205.947
26.3115 -64.8051 205.947
27.7125 -65.4343 207.947
28.8579 -65.4343 207.947
30.2975 -66.0758 209.985
31.1489 -65.4343 207.947
32.2943 -65.4343 207.947
33.4398 -65.4343 207.947
35.2701 -66.73 212.064
36.081 -66.0758 209.985
37.9825 -67.3973 214.185
38.7746 -66.73 212.064
39.9427 -66.73 212.064
39.925 -64.8051 205.947
41.8645 -66.0758 209.985
45.71 -70.2055 223.109
70.7778 -100.593 319.679
71.472 -99.1137 314.978
73.207 -99.1137 314.978
74.9421 -99.1137 314.978
79.0007 -102.117 324.523
84.6354 -106.98 339.976
87.9034 -108.705 345.46
89.8064 -108.705 345.46
93.2127 -110.487 351.123
92.1264 -106.98 339.976
98.6991 -112.329 356.975
100.665 -112.329 356.975
104.371 -114.233 363.025
104.598 -112.329 356.975
108.371 -114.233 363.025
108.531 -112.329 356.975
110.497 -112.329 356.975
112.464 -112.329 356.975
112.554 -110.487 351.123
116.397 -112.329 356.975
129.123 -122.541 389.427
128.924 -120.352 382.473
135.884 -124.81 396.639
135.559 -122.541 389.427
137.704 -122.541 389.427
137.352 -120.352 382.473
137.012 -118.241 375.763
136.684 -116.202 369.284
134.094 -112.329 356.975
136.06 -112.329 356.975
133.574 -108.705 345.46
135.477 -108.705 345.46
135.2 -106.98 339.976
139.283 -108.705 345.46
138.945 -106.98 339.976
138.618 -105.308 334.664
134.172 -100.593 319.679
133.934 -99.1137 314.978
139.78 -102.117 324.523
173.027 -124.81 396.639
175.212 -124.81 396.639
177.397 -124.81 396.639
179.582 -124.81 396.639
178.462 -122.541 389.427
183.951 -124.81 396.639
186.136 -124.81 396.639
184.897 -122.541 389.427
183.702 -120.352 382.473
176.361 -114.233 363.025
144.155 -92.3251 293.404
149.877 -94.9258 301.669
149.434 -93.6074 297.479
149.003 -92.3251 293.404
148.584 -91.0774 289.439
148.176 -89.8631 285.58
147.779 -88.6806 281.822
151.322 -89.8631 285.58
133.339 -78.3689 249.052
44.7827 -14.0411 44.6219
45.0285 -14.0411 44.6219
45.2743 -14.0411 44.6219
45.5201 -14.0411 44.6219
45.7659 -14.0411 44.6219
46.0117 -14.0411 44.6219
46.2575 -14.0411 44.6219
46.5033 -14.0411 44.6219
46.7491 -14.0411 44.6219
46.9949 -14.0411 44.6219
47.2407 -14.0411 44.6219
47.4865 -14.0411 44.6219
47.7323 -14.0411 44.6219
47.9781 -14.0411 44.6219
-83.8179 -76.112 246.19
-77.9802 -71.9755 232.81
-76.6978 -71.9755 232.81
-73.8108 -70.4441 227.856
-68.8912 -66.8863 216.348
-69.0953 -68.2654 220.809
-67.879 -68.2654 220.809
-68.0661 -69.7026 225.458
-64.7785 -67.5688 218.556
-64.23 -68.2654 220.809
-61.7407 -66.8863 216.348
-59.9435 -66.2175 214.185
-59.3572 -66.8863 216.348
-58.1655 -66.8863 216.348
-56.9737 -66.8863 216.348
-56.3512 -67.5688 218.556
-54.5902 -66.8863 216.348
-53.9434 -67.5688 218.556
-52.7394 -67.5688 218.556
-51.5355 -67.5688 218.556
-50.8505 -68.2654 220.809
-50.6791 -69.7026 225.458
-49.9631 -70.4441 227.856
-49.7669 -71.9755 232.81
-48.4844 -71.9755 232.81
-48.2509 -73.575 237.983
-47.4674 -74.4016 240.657
-47.2025 -76.112 246.19
-46.3795 -76.997 249.052
-45.5371 -77.9029 251.982
-45.2129 -79.7801 258.054
-44.3254 -80.753 261.201
-42.8866 -80.753 261.201
-41.4478 -80.753 261.201
-40.009 -80.753 261.201
-39.0463 -81.75 264.426
-37.5898 -81.75 264.426
-36.5848 -82.7718 267.731
-35.1101 -82.7718 267.731
-34.061 -83.8196 271.12
-32.9851 -84.8942 274.596
-31.8812 -85.9967 278.162
-30.349 -85.9967 278.162
-28.8167 -85.9967 278.162
-28.0121 -88.2899 285.58
-26.7963 -89.4831 289.439
-26.2668 -93.264 301.669
-25.3182 -95.9673 310.413
-24.6814 -100.329 324.523
-22.5521 -98.832 319.679
-20.7912 -98.832 319.679
-19.6158 -101.873 329.515
-17.5309 -100.329 324.523
-16.2353 -103.465 334.664
-14.6202 -105.107 339.976
-12.7475 -105.107 339.976
-11.2313 -108.553 351.123
-9.29714 -108.553 351.123
-7.12925 -105.107 339.976
-5.2565 -105.107 339.976
-3.4947 -108.553 351.123
-1.61345 -112.233 363.025
0.356088 -103.465 334.664
2.27053 -106.802 345.46
3.92054 -100.329 324.523
6.27898 -110.362 356.975
8.38512 -112.233 363.025
10.0443 -108.553 351.123
12.1781 -110.362 356.975
14.1445 -110.362 356.975
23.9764 -110.362 356.975
17.8553 -61.8855 200.173
19.1368 -62.4693 202.061
20.6393 -63.6706 205.947
21.7737 -63.6706 205.947
22.69 -63.0642 203.986
24.0426 -63.6706 205.947
25.1771 -63.6706 205.947
26.3115 -63.6706 205.947
27.7125 -64.2888 207.947
28.8579 -64.2888 207.947
30.0034 -64.2888 207.947
31.1489 -64.2888 207.947
32.2943 -64.2888 207.947
33.1183 -63.6706 205.947
34.9243 -64.9191 209.985
36.081 -64.9191 209.985
37.9825 -66.2175 214.185
38.7746 -65.5618 212.064
39.9427 -65.5618 212.064
39.925 -63.6706 205.947
42.7018 -66.2175 214.185
47.1846 -71.2016 230.306
48.4532 -71.2016 230.306
68.7263 -95.9673 310.413
70.4362 -95.9673 310.413
72.1461 -95.9673 310.413
74.9421 -97.3786 314.978
79.0007 -100.329 324.523
83.3129 -103.465 334.664
87.9034 -106.802 345.46
89.8064 -106.802 345.46
93.2127 -108.553 351.123
92.1264 -105.107 339.976
98.6991 -110.362 356.975
100.665 -110.362 356.975
104.371 -112.233 363.025
104.598 -110.362 356.975
108.371 -112.233 363.025
110.37 -112.233 363.025
112.37 -112.233 363.025
114.37 -112.233 363.025
116.37 -112.233 363.025
120.41 -114.168 369.284
131.514 -122.625 396.639
131.268 -120.395 389.427
138.448 -124.939 404.122
138.069 -122.625 396.639
140.254 -122.625 396.639
139.849 -120.395 389.427
139.458 -118.245 382.473
141.565 -118.245 382.473
138.718 -114.168 369.284
138.366 -112.233 363.025
135.764 -108.553 351.123
137.698 -108.553 351.123
135.2 -105.107 339.976
139.283 -106.802 345.46
134.67 -101.873 329.515
136.485 -101.873 329.515
134.172 -98.832 319.679
146.895 -106.802 345.46
159.06 -114.168 369.284
176.292 -124.939 404.122
178.518 -124.939 404.122
180.744 -124.939 404.122
179.582 -122.625 396.639
181.766 -122.625 396.639
183.951 -122.625 396.639
182.752 -120.395 389.427
188.321 -122.625 396.639
183.702 -118.245 382.473
173.422 -110.362 356.975
146.157 -91.9687 297.479
149.877 -93.264 301.669
149.434 -91.9687 297.479
151.073 -91.9687 297.479
150.619 -90.7089 293.404
148.176 -88.2899 285.58
147.779 -87.1282 281.822
149.331 -87.1282 281.822
134.908 -77.9029 251.982
45.0285 -13.7953 44.6219
45.2743 -13.7953 44.6219
45.5201 -13.7953 44.6219
45.7659 -13.7953 44.6219
46.0117 -13.7953 44.6219
46.2575 -13.7953 44.6219
46.5033 -13.7953 44.6219
46.7491 -13.7953 44.6219
46.9949 -13.7953 44.6219
47.2407 -13.7953 44.6219
47.4865 -13.7953 44.6219
47.7323 -13.7953 44.6219
-83.8179 -74.7559 246.19
-77.9802 -70.6931 232.81
-76.6978 -70.6931 232.81
-71.528 -67.0491 220.809
-66.865 -63.7624 209.985
-67.6995 -65.6946 216.348
-66.5077 -65.6946 216.348
-65.9825 -66.3649 218.556
-64.7785 -66.3649 218.556
-63.5746 -66.3649 218.556
-61.1233 -65.0376 214.185
-59.35 -64.3937 212.064
-58.7636 -65.0376 214.185
-58.1655 -65.6946 216.348
-56.9737 -65.6946 216.348
-55.782 -65.6946 216.348
-55.1473 -66.3649 218.556
-53.9434 -66.3649 218.556
-52.7394 -66.3649 218.556
-51.5355 -66.3649 218.556
-50.3316 -66.3649 218.556
-50.6791 -68.4607 225.458
-49.4372 -68.4607 225.458
-49.2317 -69.9329 230.306
-48.4844 -70.6931 232.81
-48.7931 -73.076 240.657
-48.0068 -73.9064 243.392
-47.2025 -74.7559 246.19
-46.3795 -75.6252 249.052
-46.0792 -77.4258 254.982
-45.2129 -78.3586 258.054
-44.3254 -79.3142 261.201
-42.8866 -79.3142 261.201
-41.4478 -79.3142 261.201
-40.009 -79.3142 261.201
-39.0463 -80.2934 264.426
-37.5898 -80.2934 264.426
-36.1332 -80.2934 264.426
-35.1101 -81.297 267.731
-34.061 -82.3261 271.12
-32.9851 -83.3816 274.596
-31.8812 -84.4645 278.162
-30.349 -84.4645 278.162
-29.1959 -85.5758 281.822
-28.0121 -86.7168 285.58
-27.1633 -89.0926 293.404
-26.2668 -91.6023 301.669
-25.3182 -94.2574 310.413
-24.313 -97.0711 319.679
-22.5521 -97.0711 319.679
-20.7912 -97.0711 319.679
-19.3186 -98.5419 324.523
-17.8006 -100.058 329.515
-16.2353 -101.621 334.664
-14.6202 -103.234 339.976
-12.9531 -104.899 345.46
-11.2313 -106.619 351.123
-9.4521 -108.396 356.975
-7.24424 -104.899 345.46
-5.34128 -104.899 345.46
-3.55294 -108.396 356.975
-1.61345 -110.233 363.025
0.36174 -103.234 339.976
2.30775 -106.619 351.123
3.98086 -100.058 329.515
6.17605 -106.619 351.123
8.24537 -108.396 356.975
9.88234 -104.899 345.46
12.1781 -108.396 356.975
14.6323 -112.134 369.284
16.9588 -114.101 375.763
19.0287 -114.101 375.763
21.4754 -116.139 382.473
23.5822 -116.139 382.473
23.9764 -108.396 356.975
17.69 -60.22 198.319
19.1368 -61.3563 202.061
20.8397 -63.1433 207.947
21.7737 -62.5362 205.947
22.69 -61.9406 203.986
23.8137 -61.9406 203.986
24.9373 -61.9406 203.986
26.061 -61.9406 203.986
27.446 -62.5362 205.947
28.5805 -62.5362 205.947
30.0034 -63.1433 207.947
31.1489 -63.1433 207.947
32.2943 -63.1433 207.947
33.1183 -62.5362 205.947
35.2701 -64.3937 212.064
36.4383 -64.3937 212.064
38.3661 -65.6946 216.348
39.5579 -65.6946 216.348
40.7496 -65.6946 216.348
41.1109 -64.3937 212.064
44.481 -67.7475 223.109
47.6974 -70.6931 232.81
50.0683 -72.264 237.983
51.3792 -72.264 237.983
65.8627 -90.33 297.479
68.4521 -91.6023 301.669
71.1154 -92.9109 305.978
73.856 -94.2574 310.413
77.8216 -97.0711 319.679
82.0312 -100.058 329.515
85.1564 -101.621 334.664
88.3809 -103.234 339.976
91.7093 -104.899 345.46
93.6123 -104.899 345.46
100.372 -110.233 363.025
102.372 -110.233 363.025
106.171 -112.134 369.284
106.371 -110.233 363.025
108.371 -110.233 363.025
108.531 -108.396 356.975
112.37 -110.233 363.025
114.37 -110.233 363.025
114.43 -108.396 356.975
120.41 -112.134 369.284
129.123 -118.25 389.427
128.924 -116.139 382.473
133.413 -118.25 389.427
135.559 -118.25 389.427
137.704 -118.25 389.427
137.352 -116.139 382.473
137.012 -114.101 375.763
139.082 -114.101 375.763
136.367 -110.233 363.025
138.366 -110.233 363.025
138.027 -108.396 356.975
137.698 -106.619 351.123
135.2 -103.234 339.976
137.072 -103.234 339.976
132.629 -98.5419 324.523
134.417 -98.5419 324.523
132.199 -95.6436 314.978
140.115 -100.058 329.515
156.364 -110.233 363.025
173.027 -120.44 396.639
172.026 -118.25 389.427
174.171 -118.25 389.427
176.316 -118.25 389.427
178.462 -118.25 389.427
180.607 -118.25 389.427
182.752 -118.25 389.427
188.321 -120.44 396.639
183.702 -116.139 382.473
176.361 -110.233 363.025
154.754 -95.6436 314.978
156.489 -95.6436 314.978
158.224 -95.6436 314.978
169.957 -101.621 334.664
154.862 -91.6023 301.669
152.236 -89.0926 293.404
151.773 -87.8887 289.439
153.367 -87.8887 289.439
138.158 -78.3586 258.054
45.0285 -13.5495 44.6219
45.2743 -13.5495 44.6219
45.5201 -13.5495 44.6219
45.7659 -13.5495 44.6219
46.0117 -13.5495 44.6219
46.2575 -13.5495 44.6219
46.5033 -13.5495 44.6219
46.7491 -13.5495 44.6219
46.9949 -13.5495 44.6219
47.2407 -13.5495 44.6219
47.4865 -13.5495 44.6219
47.7323 -13.5495 44.6219
47.9781 -13.5495 44.6219
-81.9344 -71.7503 240.657
-77.1417 -68.6643 230.306
-77.5406 -70.1734 235.368
-71.528 -65.8328 220.809
-66.865 -62.6057 209.985
-67.6995 -64.5028 216.348
-66.5077 -64.5028 216.348
-65.9825 -65.161 218.556
-64.7785 -65.161 218.556
-64.23 -65.8328 220.809
-61.1233 -63.8578 214.185
-59.35 -63.2255 212.064
-58.7636 -63.8578 214.185
-58.1655 -64.5028 216.348
-56.9737 -64.5028 216.348
-55.782 -64.5028 216.348
-54.5902 -64.5028 216.348
-53.9434 -65.161 218.556
-53.2832 -65.8328 220.809
-52.0668 -65.8328 220.809
-50.8505 -65.8328 220.809
-50.1512 -66.5185 223.109
-49.9631 -67.9338 227.856
-49.2317 -68.6643 230.306
-48.4844 -69.4107 232.81
-48.2509 -70.9531 237.983
-48.0068 -72.5657 243.392
-47.7514 -74.2533 249.052
-46.3795 -74.2533 249.052
-46.0792 -76.0212 254.982
-45.2129 -76.9371 258.054
-44.3254 -77.8754 261.201
-42.8866 -77.8754 261.201
-41.9595 -78.8368 264.426
-40.009 -77.8754 261.201
-39.0463 -78.8368 264.426
-38.0596 -79.8223 267.731
-36.5848 -79.8223 267.731
-35.1101 -79.8223 267.731
-34.4977 -81.869 274.596
-32.9851 -81.869 274.596
-32.3007 -84.0234 281.822
-30.7483 -84.0234 281.822
-29.5852 -85.1437 285.58
-28.3906 -86.2943 289.439
-27.5406 -88.6914 297.479
-26.2668 -89.9406 301.669
-25.3182 -92.5475 310.413
-24.6814 -96.7542 324.523
-23.246 -98.2428 329.515
-21.1062 -96.7542 324.523
-19.6158 -98.2428 329.515
-17.8006 -98.2428 329.515
-16.2353 -99.7778 334.664
-14.6202 -101.362 339.976
-12.9531 -102.996 345.46
-11.2313 -104.685 351.123
-9.4521 -106.43 356.975
-7.24424 -102.996 345.46
-5.42885 -104.685 351.123
-3.4947 -104.685 351.123
-1.56055 -104.685 351.123
0.35061 -98.2428 329.515
2.30775 -104.685 351.123
3.98086 -98.2428 329.515
6.17605 -104.685 351.123
8.24537 -106.43 356.975
9.88234 -102.996 345.46
12.1781 -106.43 356.975
14.6323 -110.1 369.284
17.2617 -114.032 382.473
19.3685 -114.032 382.473
21.8658 -116.105 389.427
23.5822 -114.032 382.473
24.3828 -108.234 363.025
25.9428 -106.43 356.975
17.2119 -57.5295 192.959
18.6101 -58.5851 196.5
20.6393 -61.4017 205.947
21.5664 -60.817 203.986
22.476 -60.2432 202.061
23.589 -60.2432 202.061
24.7021 -60.2432 202.061
25.8151 -60.2432 202.061
27.446 -61.4017 205.947
28.5805 -61.4017 205.947
30.0034 -61.9979 207.947
31.1489 -61.9979 207.947
32.2943 -61.9979 207.947
33.1183 -61.4017 205.947
35.2701 -63.2255 212.064
36.8027 -63.8578 214.185
39.1572 -65.8328 220.809
40.7941 -66.5185 223.109
42.0231 -66.5185 223.109
42.3694 -65.161 218.556
45.9159 -68.6643 230.306
48.7574 -70.9531 237.983
51.7948 -73.3998 246.19
50.8146 -70.1734 235.368
53.8876 -72.5657 243.392
74.9421 -93.9085 314.978
81.4695 -99.7778 334.664
84.6354 -101.362 339.976
87.9034 -102.996 345.46
91.2786 -104.685 351.123
98.0341 -110.1 369.284
100.068 -110.1 369.284
103.894 -112.031 375.763
107.856 -114.032 382.473
108.034 -112.031 375.763
108.205 -110.1 369.284
110.239 -110.1 369.284
110.37 -108.234 363.025
114.308 -110.1 369.284
116.342 -110.1 369.284
118.376 -110.1 369.284
124.711 -114.032 382.473
129.123 -116.105 389.427
128.924 -114.032 382.473
133.413 -116.105 389.427
135.559 -116.105 389.427
137.704 -116.105 389.427
137.352 -114.032 382.473
139.458 -114.032 382.473
141.565 -114.032 382.473
141.152 -112.031 375.763
140.752 -110.1 369.284
140.366 -108.234 363.025
142.366 -108.234 363.025
141.96 -106.43 356.975
143.926 -106.43 356.975
143.501 -104.685 351.123
143.089 -102.996 345.46
147.369 -104.685 351.123
157.026 -110.1 369.284
164.741 -114.032 382.473
169.881 -116.105 389.427
172.026 -116.105 389.427
174.171 -116.105 389.427
176.316 -116.105 389.427
178.462 -116.105 389.427
180.607 -116.105 389.427
179.488 -114.032 382.473
181.595 -114.032 382.473
177.368 -110.1 369.284
173.422 -106.43 356.975
161.897 -98.2428 329.515
168.909 -101.362 339.976
168.113 -99.7778 334.664
167.342 -98.2428 329.515
169.157 -98.2428 329.515
163.429 -93.9085 314.978
155.989 -88.6914 297.479
155.468 -87.4764 293.404
139.843 -77.8754 261.201
45.2743 -13.3037 44.6219
45.5201 -13.3037 44.6219
45.7659 -13.3037 44.6219
46.0117 -13.3037 44.6219
46.2575 -13.3037 44.6219
46.5033 -13.3037 44.6219
46.7491 -13.3037 44.6219
46.9949 -13.3037 44.6219
47.2407 -13.3037 44.6219
47.4865 -13.3037 44.6219
47.7323 -13.3037 44.6219
47.9781 -13.3037 44.6219
-49.2187 -22.385 76.4946
-81.9344 -70.4247 240.657
-76.321 -66.6787 227.856
-75.8731 -67.3957 230.306
-70.083 -63.3111 216.348
-64.9546 -59.6933 203.986
-66.3589 -62.0574 212.064
-63.9249 -60.8524 207.947
-64.0226 -62.0574 212.064
-64.1242 -63.3111 216.348
-63.5746 -63.9571 218.556
-60.5181 -62.0574 212.064
-58.7681 -61.449 209.985
-58.7636 -62.678 214.185
-57.5838 -62.678 214.185
-56.404 -62.678 214.185
-55.782 -63.3111 216.348
-54.5902 -63.3111 216.348
-54.4995 -64.6165 220.809
-53.2832 -64.6165 220.809
-52.6092 -65.2896 223.109
-51.3802 -65.2896 223.109
-50.6791 -65.9768 225.458
-49.9631 -66.6787 227.856
-49.7669 -68.1282 232.81
-49.0172 -68.8769 235.368
-48.2509 -69.6422 237.983
-47.4674 -70.4247 240.657
-47.7514 -72.8814 249.052
-46.3795 -72.8814 249.052
-45.5371 -73.7388 251.982
-45.2129 -75.5156 258.054
-44.3254 -76.4365 261.201
-42.8866 -76.4365 261.201
-41.9595 -77.3802 264.426
-40.5029 -77.3802 264.426
-39.0463 -77.3802 264.426
-38.0596 -78.3475 267.731
-37.0479 -79.3392 271.12
-35.5545 -79.3392 271.12
-34.4977 -80.3564 274.596
-33.4135 -81.4 278.162
-32.3007 -82.471 281.822
-31.1583 -83.5706 285.58
-29.985 -84.7 289.439
-28.7795 -85.8602 293.404
-27.9285 -88.2788 301.669
-26.642 -89.54 305.978
-25.6905 -92.1735 314.978
-24.6814 -94.9666 324.523
-23.6092 -97.9343 334.664
-21.7657 -97.9343 334.664
-20.2385 -99.4888 339.976
-17.8006 -96.4276 329.515
-16.2353 -97.9343 334.664
-14.6202 -99.4888 339.976
-13.1654 -102.751 351.123
-11.612 -106.234 363.025
-9.77803 -108.065 369.284
-7.48571 -104.463 356.975
-5.70965 -108.065 369.284
-3.73994 -109.961 375.763
-1.73079 -113.96 389.427
0.406957 -111.925 382.473
2.6069 -116.07 396.639
4.70465 -113.96 389.427
7.24498 -120.535 411.894
8.67933 -109.961 375.763
10.3848 -106.234 363.025
12.5981 -108.065 369.284
15.1548 -111.925 382.473
17.5755 -113.96 389.427
20.0859 -116.07 396.639
22.2708 -116.07 396.639
24.011 -113.96 389.427
25.2384 -109.961 375.763
27.3082 -109.961 375.763
17.9513 -55.4672 189.544
20.2499 -59.1302 202.061
21.1633 -58.5775 200.173
22.2659 -58.5775 200.173
23.1522 -58.0352 198.319
24.2446 -58.0352 198.319
25.337 -58.0352 198.319
26.9281 -59.1302 202.061
28.0412 -59.1302 202.061
29.7149 -60.2673 205.947
30.8494 -60.2673 205.947
32.2943 -60.8524 207.947
33.1183 -60.2673 205.947
35.2701 -62.0574 212.064
36.8027 -62.678 214.185
39.1572 -64.6165 220.809
41.2235 -65.9768 225.458
42.4654 -65.9768 225.458
41.522 -62.678 214.185
54.1749 -77.3802 264.426
53.6446 -74.6166 254.982
53.1509 -72.0436 246.19
77.7825 -97.9343 334.664
79.626 -97.9343 334.664
85.4762 -102.751 351.123
86.0005 -101.093 345.46
89.3445 -102.751 351.123
92.7999 -104.463 356.975
99.754 -109.961 375.763
103.642 -111.925 382.473
109.666 -116.07 396.639
113.961 -118.26 404.122
114.035 -116.07 396.639
110.103 -109.961 375.763
118.405 -116.07 396.639
114.243 -109.961 375.763
127.497 -120.535 411.894
124.96 -116.07 396.639
129.544 -118.26 404.122
131.77 -118.26 404.122
133.996 -118.26 404.122
133.699 -116.07 396.639
135.884 -116.07 396.639
138.069 -116.07 396.639
140.254 -116.07 396.639
139.849 -113.96 389.427
139.458 -111.925 382.473
141.565 -111.925 382.473
141.152 -109.961 375.763
140.752 -108.065 369.284
140.366 -106.234 363.025
142.366 -106.234 363.025
144.366 -106.234 363.025
146.365 -106.234 363.025
148.365 -106.234 363.025
147.859 -104.463 356.975
160.527 -111.925 382.473
165.591 -113.96 389.427
170.842 -116.07 396.639
173.027 -116.07 396.639
178.518 -118.26 404.122
177.397 -116.07 396.639
176.316 -113.96 389.427
178.462 -113.96 389.427
180.607 -113.96 389.427
182.752 -113.96 389.427
184.897 -113.96 389.427
187.042 -113.96 389.427
185.809 -111.925 382.473
184.619 -109.961 375.763
190.023 -111.925 382.473
188.759 -109.961 375.763
194.236 -111.925 382.473
192.899 -109.961 375.763
198.45 -111.925 382.473
184.118 -102.751 351.123
162.131 -89.54 305.978
145.154 -79.3392 271.12
45.2743 -13.0579 44.6219
45.5201 -13.0579 44.6219
45.7659 -13.0579 44.6219
46.0117 -13.0579 44.6219
46.2575 -13.0579 44.6219
46.5033 -13.0579 44.6219
46.7491 -13.0579 44.6219
46.9949 -13.0579 44.6219
47.2407 -13.0579 44.6219
47.4865 -13.0579 44.6219
47.7323 -13.0579 44.6219
47.9781 -13.0579 44.6219
-52.495 -21.5783 75.1526
-51.0866 -22.0423 76.7688
-49.7718 -21.6543 75.4172
-49.5307 -21.7308 75.6837
-49.1138 -21.7308 75.6837
-49.3951 -22.0423 76.7688
-87.5364 -71.5095 249.052
-86.1645 -71.5095 249.052
-81.024 -68.3313 237.983
-76.321 -65.4236 227.856
-73.502 -64.0606 223.109
-68.6952 -60.8892 212.064
-64.3418 -58.0171 202.061
-65.7083 -60.2923 209.985
-64.5516 -60.2923 209.985
-63.3949 -60.2923 209.985
-62.8544 -60.8892 212.064
-63.5746 -62.7532 218.556
-59.9248 -60.2923 209.985
-58.7681 -60.2923 209.985
-58.7636 -61.4981 214.185
-57.5838 -61.4981 214.185
-56.404 -61.4981 214.185
-55.782 -62.1193 216.348
-54.5902 -62.1193 216.348
-53.9434 -62.7532 218.556
-53.2832 -63.4001 220.809
-52.6092 -64.0606 223.109
-51.9211 -64.7349 225.458
-51.2183 -65.4236 227.856
-49.9631 -65.4236 227.856
-49.2317 -66.127 230.306
-49.0172 -67.5804 235.368
-48.2509 -68.3313 237.983
-47.4674 -69.099 240.657
-47.2025 -70.6875 246.19
-46.3795 -71.5095 249.052
-45.5371 -72.3508 251.982
-44.6746 -73.2121 254.982
-43.7914 -74.0941 258.054
-42.8866 -74.9977 261.201
-41.9595 -75.9236 264.426
-40.5029 -75.9236 264.426
-39.0463 -75.9236 264.426
-38.0596 -76.8727 267.731
-37.0479 -77.8457 271.12
-35.5545 -77.8457 271.12
-34.9457 -79.8677 278.162
-33.8531 -80.9186 281.822
-32.7314 -81.9975 285.58
-31.5794 -83.1056 289.439
-30.3957 -84.244 293.404
-29.5902 -86.6171 301.669
-28.738 -89.1277 310.413
-27.8349 -91.7883 319.679
-26.469 -93.179 324.523
-25.0611 -94.6125 329.515
-23.984 -97.6161 339.976
-22.1112 -97.6161 339.976
-20.5649 -99.1905 345.46
-18.662 -99.1905 345.46
-16.493 -97.6161 339.976
-14.856 -99.1905 345.46
-13.3849 -102.497 356.975
-11.8122 -106.031 369.284
-9.77803 -106.031 369.284
-7.61259 -104.234 363.025
-5.80982 -107.891 375.763
-3.80672 -109.818 382.473
-1.7961 -116.034 404.122
0.42203 -113.885 396.639
2.76025 -120.585 419.97
5.39075 -128.121 446.219
8.76137 -143.019 498.104
8.83432 -109.818 382.473
10.7492 -107.891 375.763
12.8191 -107.891 375.763
15.4304 -111.815 389.427
17.901 -113.885 396.639
20.0859 -113.885 396.639
22.2708 -113.885 396.639
24.4556 -113.885 396.639
25.689 -109.818 382.473
27.7959 -109.818 382.473
17.7939 -53.9457 187.882
20.0606 -57.4749 200.173
20.7749 -56.4203 196.5
22.2659 -57.4749 200.173
22.9398 -56.4203 196.5
24.0222 -56.4203 196.5
25.1046 -56.4203 196.5
26.6765 -57.4749 200.173
27.7791 -57.4749 200.173
29.4319 -58.5697 203.986
30.5556 -58.5697 203.986
31.9838 -59.1328 205.947
32.8028 -58.5697 203.986
34.9243 -60.2923 209.985
36.4383 -60.8892 212.064
38.7576 -62.7532 218.556
41.2235 -64.7349 225.458
41.1655 -62.7532 218.556
88.3446 -130.847 455.713
83.729 -120.585 419.97
81.2623 -113.885 396.639
86.7874 -109.818 382.473
90.5105 -111.815 389.427
91.0011 -109.818 382.473
94.8008 -111.815 389.427
91.9315 -106.031 369.284
93.9657 -106.031 369.284
97.6841 -107.891 375.763
105.296 -113.885 396.639
118.448 -125.506 437.112
128.738 -133.692 465.619
131.303 -133.692 465.619
131.019 -130.847 455.713
123.057 -120.585 419.97
145.315 -139.768 486.784
122.865 -116.034 404.122
141.06 -130.847 455.713
134.957 -122.996 428.37
140.119 -125.506 437.112
139.676 -122.996 428.37
139.25 -120.585 419.97
136.222 -116.034 404.122
138.448 -116.034 404.122
138.069 -113.885 396.639
140.254 -113.885 396.639
139.849 -111.815 389.427
141.994 -111.815 389.427
141.565 -109.818 382.473
143.672 -109.818 382.473
143.221 -107.891 375.763
142.786 -106.031 369.284
144.82 -106.031 369.284
149.431 -107.891 375.763
151.501 -107.891 375.763
156.313 -109.818 382.473
158.42 -109.818 382.473
172.875 -118.266 411.894
182.15 -122.996 428.37
177.413 -118.266 411.894
186.869 -122.996 428.37
185.518 -120.585 419.97
180.744 -116.034 404.122
182.97 -116.034 404.122
181.766 -113.885 396.639
183.951 -113.885 396.639
182.752 -111.815 389.427
191.874 -116.034 404.122
194.1 -116.034 404.122
192.691 -113.885 396.639
191.332 -111.815 389.427
193.478 -111.815 389.427
195.623 -111.815 389.427
201.43 -113.885 396.639
196.343 -109.818 382.473
202.058 -111.815 389.427
197.038 -107.891 375.763
174.603 -94.6125 329.515
45.5201 -12.8121 44.6219
45.7659 -12.8121 44.6219
46.0117 -12.8121 44.6219
46.2575 -12.8121 44.6219
46.5033 -12.8121 44.6219
46.7491 -12.8121 44.6219
46.9949 -12.8121 44.6219
47.2407 -12.8121 44.6219
47.4865 -12.8121 44.6219
47.7323 -12.8121 44.6219
47.9781 -12.8121 44.6219
48.2239 -12.8121 44.6219
-53.0534 -21.3895 75.9521
-52.081 -21.1643 75.1526
-51.307 -21.0168 74.6289
-51.6152 -21.3139 75.6837
-51.9324 -21.6195 76.7688
-51.6948 -21.6972 77.0449
-51.2704 -21.6972 77.0449
-50.4828 -21.5423 76.4946
-50.0614 -21.5423 76.4946
-49.6401 -21.5423 76.4946
-85.5469 -68.5435 243.392
-82.3349 -67.0203 237.983
-78.4103 -64.8584 230.306
-74.731 -62.8316 223.109
-71.2747 -60.9276 216.348
-67.3613 -58.5615 207.947
-63.1503 -55.8503 198.319
-65.0704 -58.5615 207.947
-63.9249 -58.5615 207.947
-64.0226 -59.7211 212.064
-62.2382 -59.1356 209.985
-64.23 -62.1838 220.809
-60.5181 -59.7211 212.064
-58.7681 -59.1356 209.985
-59.9629 -61.5493 218.556
-57.5838 -60.3183 214.185
-56.404 -60.3183 214.185
-55.782 -60.9276 216.348
-54.5902 -60.9276 216.348
-54.4995 -62.1838 220.809
-53.2832 -62.1838 220.809
-53.163 -63.493 225.458
-51.9211 -63.493 225.458
-51.2183 -64.1684 227.856
-49.9631 -64.1684 227.856
-48.708 -64.1684 227.856
-47.9631 -64.8584 230.306
-47.7207 -66.2839 235.368
-46.94 -67.0203 237.983
-47.2025 -69.3314 246.19
-45.8464 -69.3314 246.19
-45.0076 -70.1376 249.052
-44.149 -70.9627 251.982
-43.7914 -72.6727 258.054
-42.3699 -72.6727 258.054
-41.4478 -73.5589 261.201
-40.5029 -74.467 264.426
-39.0463 -74.467 264.426
-38.5414 -76.3523 271.12
-37.0479 -76.3523 271.12
-35.5545 -76.3523 271.12
-35.4055 -79.3662 281.822
-33.8531 -79.3662 281.822
-32.7314 -80.4244 285.58
-32.0119 -82.6278 293.404
-30.8179 -83.7754 297.479
-30.0129 -86.169 305.978
-28.738 -87.4178 310.413
-28.2567 -91.3914 324.523
-27.2962 -94.2474 334.664
-25.4527 -94.2474 334.664
-23.984 -95.7433 339.976
-22.1112 -95.7433 339.976
-20.5649 -97.2876 345.46
-18.662 -97.2876 345.46
-16.2353 -94.2474 334.664
-14.6202 -95.7433 339.976
-12.9531 -97.2876 345.46
-11.4185 -100.531 356.975
-9.29714 -98.8825 351.123
-7.363 -98.8825 351.123
-5.70965 -103.997 369.284
-3.94771 -111.701 396.639
-1.86654 -118.271 419.97
0.446855 -118.271 419.97
2.93276 -125.663 446.219
5.62513 -131.127 465.619
8.76137 -140.275 498.104
8.99494 -109.67 389.427
10.9412 -107.711 382.473
13.048 -107.711 382.473
15.7161 -111.701 396.639
18.2388 -113.808 404.122
20.4649 -113.808 404.122
22.691 -113.808 404.122
24.4556 -111.701 396.639
26.1561 -109.67 389.427
28.8254 -111.701 396.639
30.4464 -109.67 389.427
33.8214 -113.808 404.122
20.0606 -56.3722 200.173
20.5861 -54.8348 194.714
22.0597 -55.8503 198.319
22.7312 -54.8348 194.714
23.5893 -54.3408 192.959
24.6523 -54.3408 192.959
26.187 -55.3379 196.5
27.5219 -55.8503 198.319
29.1542 -56.9041 202.061
29.9844 -56.3722 200.173
31.6792 -57.446 203.986
32.4934 -56.9041 202.061
34.5853 -58.5615 207.947
37.1744 -60.9276 216.348
39.1572 -62.1838 220.809
81.5882 -125.663 446.219
87.7003 -131.127 465.619
88.3446 -128.337 455.713
85.4036 -120.637 428.37
82.7955 -113.808 404.122
80.4669 -107.711 382.473
82.5737 -107.711 382.473
81.7606 -103.997 369.284
88.3654 -109.67 389.427
92.1867 -111.701 396.639
92.6557 -109.67 389.427
94.8008 -109.67 389.427
93.5444 -105.822 375.763
95.6142 -105.822 375.763
99.4285 -107.711 382.473
111.49 -118.271 419.97
126.173 -131.127 465.619
137.72 -140.275 498.104
137.271 -137.087 486.784
143.207 -140.275 498.104
136.432 -131.127 465.619
152.235 -143.615 509.964
138.55 -128.337 455.713
150.678 -137.087 486.784
146.692 -131.127 465.619
152.574 -134.041 475.966
145.496 -125.663 446.219
142.035 -120.637 428.37
138.841 -115.997 411.894
141.11 -115.997 411.894
140.674 -113.808 404.122
142.9 -113.808 404.122
142.439 -111.701 396.639
144.624 -111.701 396.639
146.808 -111.701 396.639
146.284 -109.67 389.427
145.779 -107.711 382.473
147.886 -107.711 382.473
149.993 -107.711 382.473
157.733 -111.701 396.639
162.935 -113.808 404.122
171.638 -118.271 419.97
184.823 -125.663 446.219
183.459 -123.099 437.112
189.739 -125.663 446.219
180.892 -118.271 419.97
194.655 -125.663 446.219
189.229 -120.637 428.37
180.744 -113.808 404.122
179.582 -111.701 396.639
181.766 -111.701 396.639
180.607 -109.67 389.427
179.488 -107.711 382.473
184.897 -109.67 389.427
187.042 -109.67 389.427
185.809 -107.711 382.473
184.619 -105.822 375.763
190.023 -107.711 382.473
188.759 -105.822 375.763
190.829 -105.822 375.763
192.899 -105.822 375.763
191.607 -103.997 369.284
190.359 -102.234 363.025
177.331 -94.2474 334.664
45.5201 -12.5663 44.6219
45.7659 -12.5663 44.6219
46.0117 -12.5663 44.6219
46.2575 -12.5663 44.6219
46.5033 -12.5663 44.6219
46.7491 -12.5663 44.6219
46.9949 -12.5663 44.6219
47.2407 -12.5663 44.6219
47.4865 -12.5663 44.6219
47.7323 -12.5663 44.6219
47.9781 -12.5663 44.6219
-53.8537 -21.1209 76.4946
-53.4324 -21.1209 76.4946
-52.635 -20.9711 75.9521
-52.4025 -21.0457 76.2224
-52.3552 -21.1966 76.7688
-52.1192 -21.2728 77.0449
-52.0694 -21.427 77.6032
-51.4555 -21.3496 77.3231
-50.846 -21.2728 77.0449
-50.4216 -21.2728 77.0449
-49.9972 -21.2728 77.0449
-80.5451 -64.281 232.81
-78.4103 -63.5898 230.306
-73.9606 -60.9675 220.809
-69.1784 -57.9789 209.985
-64.8431 -55.2696 200.173
-63.3949 -57.9789 209.985
-59.9629 -60.3454 218.556
-57.5838 -59.1385 214.185
-56.9737 -59.7358 216.348
-55.782 -59.7358 216.348
-55.1473 -60.3454 218.556
-54.4995 -60.9675 220.809
-53.8382 -61.6026 223.109
-53.163 -62.251 225.458
-51.9211 -62.251 225.458
-50.6791 -62.251 225.458
-49.9631 -62.9133 227.856
-48.708 -62.9133 227.856
-47.9631 -63.5898 230.306
-47.202 -64.281 232.81
-46.4242 -64.9873 235.368
-46.6661 -67.2028 243.392
-45.3254 -67.2028 243.392
-44.4903 -67.9753 246.19
-44.149 -69.5747 251.982
-43.2701 -70.4029 254.982
-42.3699 -71.2512 258.054
-41.9595 -73.0105 264.426
-41.0092 -73.9231 267.731
-39.5344 -73.9231 267.731
-38.5414 -74.8588 271.12
-38.0102 -76.8032 278.162
-36.0103 -75.8186 274.596
-35.8776 -78.8513 285.58
-34.7681 -79.9169 289.439
-33.6282 -81.0116 293.404
-32.9137 -83.2936 301.669
-31.6984 -84.4835 305.978
-30.4479 -85.7079 310.413
-29.5959 -88.2664 319.679
-29.1397 -92.4039 334.664
-27.2962 -92.4039 334.664
-25.4527 -92.4039 334.664
-23.984 -93.8706 339.976
-21.7657 -92.4039 334.664
-20.2385 -93.8706 339.976
