VERSION  1
FIELDS x y z 
SIZE 4 4 4 
TYPE F F F 
COUNT 1 1 1 
WIDTH 1982
HEIGHT 1
VIEWPOINT 0 0 0 1 0 0 0 
POINTS 1982
DATA ascii 
-34.6567 5.69872 105.48
-34.4599 5.74002 106.244
-34.0121 5.74002 106.244
-33.5642 5.74002 106.244
-33.1163 5.74002 106.244
-32.6684 5.74002 106.244
-32.4557 5.78192 107.019
-32.2399 5.82443 107.806
-31.7854 5.82443 107.806
-31.331 5.82443 107.806
-30.8765 5.82443 107.806
-30.6474 5.86758 108.605
-30.1896 5.86758 108.605
-29.5131 5.82443 107.806
-29.0586 5.82443 107.806
-28.8161 5.86758 108.605
-28.3582 5.86758 108.605
-27.9004 5.86758 108.605
-27.4426 5.86758 108.605
-27.1861 5.91136 109.415
-26.7248 5.91136 109.415
-26.4611 5.95581 110.238
-25.6112 5.86758 108.605
-25.3411 5.91136 109.415
-24.6956 5.86758 108.605
-24.2377 5.86758 108.605
-23.7799 5.86758 108.605
-23.3221 5.86758 108.605
-22.6961 5.82443 107.806
-22.4064 5.86758 108.605
-21.9486 5.86758 108.605
-21.4907 5.86758 108.605
-21.3492 5.95581 110.238
-20.4238 5.82443 107.806
-20.4197 5.95581 110.238
-19.6594 5.86758 108.605
-18.9212 5.78192 107.019
-18.8836 5.91136 109.415
-18.2859 5.86758 108.605
-17.1166 5.78192 107.019
-16.6655 5.78192 107.019
-16.0968 5.74002 106.244
-15.2011 5.74002 106.244
-14.7532 5.74002 106.244
-17.1344 7.33447 135.756
-16.261 7.20112 133.288
-16.7661 7.69051 142.346
-16.166 7.69051 142.346
-15.4162 7.61656 140.977
-15.1126 7.76591 143.742
-14.5066 7.76591 143.742
-13.9007 7.76591 143.742
-13.2947 7.76591 143.742
-12.6887 7.76591 143.742
-12.0828 7.76591 143.742
-11.5905 7.8428 145.165
-10.8709 7.76591 143.742
-10.3666 7.8428 145.165
-9.7546 7.8428 145.165
-9.32734 8.00124 148.098
-8.79183 8.08288 149.609
-8.16114 8.08288 149.609
-7.68734 8.25128 152.726
-7.27072 8.51745 157.652
-6.67793 8.61003 159.366
-10.6686 17.2201 318.732
-9.7488 18.0028 333.22
-8.34408 18.0028 333.22
-6.78516 17.6027 325.815
-5.18137 16.8537 311.95
-3.86632 16.8537 311.95
-2.18017 14.4022 266.576
-1.07596 14.6689 271.512
0.0686198 14.6689 271.512
1.2132 14.6689 271.512
2.35779 14.6689 271.512
3.43869 14.4022 266.576
4.56246 14.4022 266.576
5.68624 14.4022 266.576
6.81001 14.4022 266.576
7.93378 14.4022 266.576
9.05755 14.4022 266.576
9.99952 14.145 261.815
11.1032 14.145 261.815
12.2069 14.145 261.815
13.3106 14.145 261.815
14.4143 14.145 261.815
15.518 14.145 261.815
16.6217 14.145 261.815
17.4145 13.8969 257.222
18.4988 13.8969 257.222
19.9329 14.145 261.815
21.0366 14.145 261.815
22.1403 14.145 261.815
23.244 14.145 261.815
23.9205 13.8969 257.222
25.4514 14.145 261.815
27.0379 14.4022 266.576
28.1617 14.4022 266.576
28.7625 14.145 261.815
29.8662 14.145 261.815
30.4266 13.8969 257.222
19.0094 6.23719 115.446
19.3438 6.18846 114.544
19.8267 6.18846 114.544
20.6319 6.28669 116.362
21.4631 6.38809 118.239
21.2753 6.18846 114.544
21.5895 6.14049 113.656
21.4049 5.95581 110.238
21.7064 5.91136 109.415
22.1677 5.91136 109.415
22.6289 5.91136 109.415
22.9191 5.86758 108.605
23.3769 5.86758 108.605
23.8348 5.86758 108.605
24.3891 5.78192 107.019
24.8403 5.78192 107.019
25.1082 5.74002 106.244
25.3722 5.69872 105.48
25.8168 5.69872 105.48
26.2615 5.69872 105.48
26.7062 5.69872 105.48
27.1508 5.69872 105.48
27.7954 5.74002 106.244
28.2433 5.74002 106.244
28.6912 5.74002 106.244
29.1391 5.74002 106.244
29.3741 5.69872 105.48
29.8188 5.69872 105.48
30.0473 5.65802 104.726
30.4887 5.65802 104.726
30.9302 5.65802 104.726
31.3717 5.65802 104.726
31.8132 5.65802 104.726
32.0259 5.61789 103.983
32.6961 5.65802 104.726
32.6709 5.57833 103.251
33.1062 5.57833 103.251
33.5414 5.57833 103.251
33.7391 5.53932 102.529
33.934 5.50085 101.817
34.3632 5.50085 101.817
34.5525 5.46292 101.115
34.9788 5.46292 101.115
35.405 5.46292 101.115
35.5859 5.4255 100.422
35.7642 5.38859 99.7392
36.1847 5.38859 99.7392
36.3578 5.35218 99.0653
36.7754 5.35218 99.0653
37.1931 5.35218 99.0653
37.6107 5.35218 99.0653
38.0283 5.35218 99.0653
38.4459 5.35218 99.0653
38.6027 5.31626 98.4004
39.2812 5.35218 99.0653
39.4323 5.31626 98.4004
40.1164 5.35218 99.0653
40.262 5.31626 98.4004
39.874 5.21133 96.4583
40.5473 5.24585 97.0971
40.8252 5.17727 95.8278
40.9615 5.14365 95.2056
41.3628 5.14365 95.2056
42.0372 5.17727 95.8278
42.4411 5.17727 95.8278
43.127 5.21133 96.4583
43.5336 5.21133 96.4583
43.9402 5.21133 96.4583
125.973 14.6689 271.512
127.117 14.6689 271.512
135.807 15.5318 287.484
142.611 16.1658 299.218
140.995 15.8425 293.233
142.231 15.8425 293.233
140.654 15.5318 287.484
150.733 16.5026 305.451
158.63 17.2201 318.732
167.245 18.0028 333.22
176.681 18.8601 349.087
178.153 18.8601 349.087
54.3224 2.91222 53.9032
54.5497 2.91222 53.9032
54.7769 2.91222 53.9032
55.0041 2.91222 53.9032
55.2314 2.91222 53.9032
55.4586 2.91222 53.9032
55.6858 2.91222 53.9032
55.9131 2.91222 53.9032
-35.0549 5.7698 99.0653
-34.8729 5.80905 99.7392
-35.1702 5.93007 101.817
-34.9839 5.97154 102.529
-35.0418 6.05624 103.983
-34.8506 6.0995 104.726
-34.6567 6.14338 105.48
-34.212 6.14338 105.48
-33.7674 6.14338 105.48
-33.5642 6.1879 106.244
-32.8781 6.14338 105.48
-32.4334 6.14338 105.48
-32.2205 6.1879 106.244
-32.0046 6.23307 107.019
-31.7854 6.2789 107.806
-31.1023 6.23307 107.019
-30.8765 6.2789 107.806
-30.422 6.2789 107.806
-29.9676 6.2789 107.806
-29.5131 6.2789 107.806
-29.0586 6.2789 107.806
-28.8161 6.32541 108.605
-28.3582 6.32541 108.605
-27.9004 6.32541 108.605
-27.4426 6.32541 108.605
-27.1861 6.37261 109.415
-26.7248 6.37261 109.415
-26.2636 6.37261 109.415
-25.6112 6.32541 108.605
-25.1534 6.32541 108.605
-24.6956 6.32541 108.605
-24.2377 6.32541 108.605
-23.7799 6.32541 108.605
-23.3221 6.32541 108.605
-22.6961 6.2789 107.806
-22.4064 6.32541 108.605
-21.9486 6.32541 108.605
-21.4907 6.32541 108.605
-21.0329 6.32541 108.605
-20.4238 6.2789 107.806
-20.1172 6.32541 108.605
-18.9212 6.23307 107.019
-18.7437 6.32541 108.605
-18.0189 6.23307 107.019
-17.1166 6.23307 107.019
-16.6655 6.23307 107.019
-16.0968 6.1879 106.244
-15.2011 6.1879 106.244
-14.7532 6.1879 106.244
-17.2946 7.98066 137.025
-16.4102 7.83422 134.511
-16.7661 8.29058 142.346
-16.166 8.29058 142.346
-15.4162 8.21087 140.977
-15.1126 8.37187 143.742
-14.5066 8.37187 143.742
-14.0383 8.45475 145.165
-13.2947 8.37187 143.742
-12.6887 8.37187 143.742
-12.2024 8.45475 145.165
-11.7064 8.5393 146.617
-10.9785 8.45475 145.165
-10.3666 8.45475 145.165
-9.85215 8.5393 146.617
-9.32734 8.62556 148.098
-8.79183 8.71357 149.609
-8.24528 8.8034 151.151
-7.68734 8.89511 152.726
-7.34975 9.28185 159.366
-6.67793 9.28185 159.366
-11.1535 19.4075 333.22
-10.213 20.3317 349.087
-8.74142 20.3317 349.087
-7.10075 19.8588 340.969
-5.29401 18.5637 318.732
-3.95037 18.5637 318.732
-2.18017 15.526 266.576
-1.07596 15.8135 271.512
0.0686198 15.8135 271.512
1.2132 15.8135 271.512
2.35779 15.8135 271.512
3.37729 15.2488 261.815
4.56246 15.526 266.576
5.68624 15.526 266.576
6.81001 15.526 266.576
7.93378 15.526 266.576
8.89581 15.2488 261.815
9.99952 15.2488 261.815
10.9084 14.9812 257.222
12.2069 15.2488 261.815
13.3106 15.2488 261.815
14.1615 14.9812 257.222
15.2458 14.9812 257.222
16.3301 14.9812 257.222
17.4145 14.9812 257.222
18.4988 14.9812 257.222
19.5832 14.9812 257.222
20.6675 14.9812 257.222
21.7519 14.9812 257.222
22.8362 14.9812 257.222
23.5081 14.7229 252.787
25.0049 14.9812 257.222
27.0379 15.526 266.576
28.2579 14.9812 257.222
29.3422 14.9812 257.222
19.1603 6.77722 116.362
19.3438 6.67133 114.544
19.8267 6.67133 114.544
20.6319 6.77722 116.362
21.2914 6.83144 117.293
21.1104 6.61961 113.656
21.4234 6.56869 112.782
21.2452 6.37261 109.415
21.5456 6.32541 108.605
22.0034 6.32541 108.605
22.4613 6.32541 108.605
23.0357 6.23307 107.019
23.6595 6.2789 107.806
23.938 6.23307 107.019
24.2124 6.1879 106.244
24.6603 6.1879 106.244
24.9275 6.14338 105.48
25.3722 6.14338 105.48
25.8168 6.14338 105.48
26.0739 6.0995 104.726
26.7062 6.14338 105.48
27.1508 6.14338 105.48
27.5955 6.14338 105.48
28.2433 6.1879 106.244
28.6912 6.1879 106.244
29.1391 6.1879 106.244
29.3741 6.14338 105.48
29.8188 6.14338 105.48
30.2634 6.14338 105.48
30.4887 6.0995 104.726
30.9302 6.0995 104.726
31.3717 6.0995 104.726
31.8132 6.0995 104.726
32.2547 6.0995 104.726
32.6961 6.0995 104.726
32.9026 6.05624 103.983
33.5791 6.0995 104.726
34.0206 6.0995 104.726
33.9767 6.01359 103.251
34.412 6.01359 103.251
34.6035 5.97154 102.529
35.0358 5.97154 102.529
35.2217 5.93007 101.817
35.6509 5.93007 101.817
35.5859 5.84884 100.422
36.0092 5.84884 100.422
36.4325 5.84884 100.422
36.6052 5.80905 99.7392
37.0256 5.80905 99.7392
37.4461 5.80905 99.7392
37.8665 5.80905 99.7392
38.0283 5.7698 99.0653
38.4459 5.7698 99.0653
38.8635 5.7698 99.0653
39.5484 5.80905 99.7392
39.6988 5.7698 99.0653
40.3893 5.80905 99.7392
40.534 5.7698 99.0653
39.874 5.61796 96.4583
40.5473 5.65517 97.0971
40.8252 5.58124 95.8278
40.9615 5.545 95.2056
41.3628 5.545 95.2056
42.3137 5.61796 96.4583
42.7203 5.61796 96.4583
43.127 5.61796 96.4583
43.5336 5.61796 96.4583
123.682 15.526 266.576
124.806 15.526 266.576
135.807 16.7437 287.484
139.759 17.0786 293.233
138.231 16.7437 287.484
139.443 16.7437 287.484
137.95 16.4217 281.955
147.657 17.4271 299.218
155.255 18.1687 311.95
163.529 18.9762 325.815
172.572 19.8588 340.969
178.153 20.3317 349.087
54.3224 3.13945 53.9032
54.5497 3.13945 53.9032
54.7769 3.13945 53.9032
55.0041 3.13945 53.9032
55.2314 3.13945 53.9032
55.6858 3.13945 53.9032
55.9131 3.13945 53.9032
-34.8196 6.14589 98.4004
-34.6373 6.18742 99.0653
-34.6884 6.27218 100.422
-34.5014 6.31543 101.115
-34.5517 6.40376 102.529
-34.3598 6.44886 103.251
-34.1651 6.49459 103.983
-33.9677 6.54098 104.726
-33.7674 6.58804 105.48
-33.3227 6.58804 105.48
-32.8781 6.58804 105.48
-32.2017 6.54098 104.726
-31.9887 6.58804 105.48
-31.7727 6.63578 106.244
-31.5534 6.68422 107.019
-31.1023 6.68422 107.019
-30.6511 6.68422 107.019
-30.422 6.73337 107.806
-29.9676 6.73337 107.806
-29.5131 6.73337 107.806
-29.0586 6.73337 107.806
-28.8161 6.78324 108.605
-28.3582 6.78324 108.605
-27.9004 6.78324 108.605
-27.4426 6.78324 108.605
-27.1861 6.83386 109.415
-26.7248 6.83386 109.415
-26.2636 6.83386 109.415
-25.4229 6.73337 107.806
-25.1534 6.78324 108.605
-24.514 6.73337 107.806
-24.0595 6.73337 107.806
-23.605 6.73337 107.806
-23.1506 6.73337 107.806
-22.5304 6.68422 107.019
-22.2416 6.73337 107.806
-21.7872 6.73337 107.806
-21.3327 6.73337 107.806
-20.8782 6.73337 107.806
-20.2747 6.68422 107.019
-19.8235 6.68422 107.019
-19.3724 6.68422 107.019
-18.9212 6.68422 107.019
-18.4701 6.68422 107.019
-18.0189 6.68422 107.019
-17.5678 6.68422 107.019
-16.9926 6.63578 106.244
-16.5447 6.63578 106.244
-16.0968 6.63578 106.244
-15.7632 6.68422 107.019
-15.2011 6.63578 106.244
-14.7532 6.63578 106.244
-14.3053 6.63578 106.244
-13.8574 6.63578 106.244
-16.9304 8.97782 143.742
-16.3245 8.97782 143.742
-15.5659 8.89066 142.346
-15.1126 8.97782 143.742
-14.6502 9.06671 145.165
-14.0383 9.06671 145.165
-13.4263 9.06671 145.165
-12.6887 8.97782 143.742
-12.2024 9.06671 145.165
-11.7064 9.15738 146.617
-10.9785 9.06671 145.165
-10.4702 9.15738 146.617
-9.85215 9.15738 146.617
-9.32734 9.24988 148.098
-8.79183 9.34426 149.609
-8.24528 9.44059 151.151
-7.68734 9.53893 152.726
-7.34975 9.95367 159.366
-6.67793 9.95367 159.366
-12.8503 21.2962 340.969
-11.1535 20.8122 333.22
-10.213 21.8033 349.087
-8.74142 21.8033 349.087
-6.93936 20.8122 333.22
-5.29401 19.9073 318.732
-3.78577 19.0779 305.451
-2.18017 16.6498 266.576
-1.07596 16.9581 271.512
0.0686198 16.9581 271.512
1.2132 16.9581 271.512
2.31492 16.6498 266.576
3.37729 16.3525 261.815
4.48099 16.3525 261.815
5.5847 16.3525 261.815
6.6884 16.3525 261.815
7.79211 16.3525 261.815
8.89581 16.3525 261.815
9.82409 16.0656 257.222
10.9084 16.0656 257.222
11.9928 16.0656 257.222
13.0771 16.0656 257.222
13.9173 15.7886 252.787
15.2458 16.0656 257.222
16.3301 16.0656 257.222
17.1142 15.7886 252.787
18.1799 15.7886 252.787
19.2455 15.7886 252.787
20.3112 15.7886 252.787
21.7519 16.0656 257.222
22.4425 15.7886 252.787
23.5081 15.7886 252.787
24.5738 15.7886 252.787
26.5551 16.3525 261.815
27.6588 16.3525 261.815
28.2579 16.0656 257.222
29.3422 16.0656 257.222
19.0094 7.21053 115.446
19.0462 7.04414 112.782
19.8267 7.1542 114.544
20.6319 7.26776 116.362
21.2914 7.3259 117.293
20.948 7.04414 112.782
21.0988 6.93741 111.073
21.3872 6.73337 107.806
21.8417 6.73337 107.806
22.2961 6.73337 107.806
22.5845 6.68422 107.019
23.0357 6.68422 107.019
23.4868 6.68422 107.019
23.938 6.68422 107.019
24.2124 6.63578 106.244
24.6603 6.63578 106.244
24.9275 6.58804 105.48
25.191 6.54098 104.726
25.6324 6.54098 104.726
26.0739 6.54098 104.726
26.7062 6.58804 105.48
27.1508 6.58804 105.48
27.7954 6.63578 106.244
28.2433 6.63578 106.244
28.6912 6.63578 106.244
29.1391 6.63578 106.244
29.3741 6.58804 105.48
30.0348 6.63578 106.244
30.2634 6.58804 105.48
30.7081 6.58804 105.48
31.1527 6.58804 105.48
31.5974 6.58804 105.48
32.0421 6.58804 105.48
32.4867 6.58804 105.48
32.9314 6.58804 105.48
33.1376 6.54098 104.726
33.8207 6.58804 105.48
34.2653 6.58804 105.48
34.2177 6.49459 103.983
34.656 6.49459 103.983
34.8472 6.44886 103.251
35.0358 6.40376 102.529
35.2217 6.35929 101.817
35.6509 6.35929 101.817
35.3438 6.22951 99.7392
35.7642 6.22951 99.7392
36.1847 6.22951 99.7392
36.3578 6.18742 99.0653
36.7754 6.18742 99.0653
37.1931 6.18742 99.0653
37.6107 6.18742 99.0653
37.7731 6.14589 98.4004
38.4459 6.18742 99.0653
38.6027 6.14589 98.4004
39.2812 6.18742 99.0653
39.4323 6.14589 98.4004
40.1164 6.18742 99.0653
40.262 6.14589 98.4004
39.874 6.02459 96.4583
40.2806 6.02459 96.4583
40.4213 5.98521 95.8278
40.5602 5.94635 95.2056
40.6972 5.90799 94.5914
41.096 5.90799 94.5914
42.0372 5.98521 95.8278
42.4411 5.98521 95.8278
43.127 6.02459 96.4583
43.5336 6.02459 96.4583
123.682 16.6498 266.576
124.806 16.6498 266.576
133.195 17.6103 281.955
139.759 18.3148 293.233
138.231 17.9556 287.484
139.443 17.9556 287.484
135.347 17.2781 276.635
144.704 18.3148 293.233
152.021 19.0779 305.451
159.974 19.9073 318.732
55.0041 3.36668 53.9032
55.2314 3.36668 53.9032
-34.8196 6.56071 98.4004
-34.6373 6.60504 99.0653
-34.4524 6.64997 99.7392
-34.5014 6.74169 101.115
-34.3118 6.78851 101.817
-34.1195 6.83598 102.529
-34.1651 6.93294 103.983
-33.9677 6.98247 104.726
-33.5262 6.98247 104.726
-33.3227 7.0327 105.48
-32.8781 7.0327 105.48
-32.2017 6.98247 104.726
-31.9887 7.0327 105.48
-31.7727 7.08366 106.244
-31.5534 7.13537 107.019
-30.8769 7.08366 106.244
-30.6511 7.13537 107.019
-30.422 7.18783 107.806
-29.9676 7.18783 107.806
-29.5131 7.18783 107.806
-29.0586 7.18783 107.806
-28.8161 7.24108 108.605
-28.3582 7.24108 108.605
-27.9004 7.24108 108.605
-27.4426 7.24108 108.605
-27.3905 7.34996 110.238
-26.9258 7.34996 110.238
-26.2636 7.29511 109.415
-25.4229 7.18783 107.806
-24.9684 7.18783 107.806
-24.514 7.18783 107.806
-24.0595 7.18783 107.806
-23.605 7.18783 107.806
-23.1506 7.18783 107.806
-22.5304 7.13537 107.019
-22.0793 7.13537 107.019
-21.6281 7.13537 107.019
-21.177 7.13537 107.019
-20.7258 7.13537 107.019
-20.1278 7.08366 106.244
-19.8235 7.13537 107.019
-19.3724 7.13537 107.019
-18.7841 7.08366 106.244
-18.4701 7.13537 107.019
-18.0189 7.13537 107.019
-17.5678 7.13537 107.019
-16.9926 7.08366 106.244
-16.5447 7.08366 106.244
-16.0968 7.08366 106.244
-15.7632 7.13537 107.019
-15.0917 7.0327 105.48
-14.7532 7.08366 106.244
-14.3053 7.08366 106.244
-13.8574 7.08366 106.244
-16.9304 9.58378 143.742
-16.3245 9.58378 143.742
-15.5659 9.49073 142.346
-15.1126 9.58378 143.742
-14.6502 9.67867 145.165
-14.1787 9.77545 146.617
-13.4263 9.67867 145.165
-12.8144 9.67867 145.165
-12.3244 9.77545 146.617
-11.8246 9.87419 148.098
-11.0883 9.77545 146.617
-10.576 9.87419 148.098
-10.0532 9.97495 149.609
-9.61882 10.1828 152.726
-9.06947 10.2899 154.333
-8.41886 10.2899 154.333
-7.8509 10.3994 155.975
-7.43052 10.7423 161.117
-6.82633 10.8616 162.907
-9.97551 22.7336 340.969
-8.53813 22.7336 340.969
-6.63765 21.251 318.732
-2.10368 17.1499 257.222
-1.03754 17.4562 261.815
0.0661691 17.4562 261.815
1.16987 17.4562 261.815
2.27358 17.4562 261.815
3.26083 16.8542 252.787
4.40238 17.1499 257.222
5.48672 17.1499 257.222
6.57106 17.1499 257.222
7.6554 17.1499 257.222
8.58906 16.8542 252.787
9.65471 16.8542 252.787
10.5387 16.5686 248.503
11.786 16.8542 252.787
12.8516 16.8542 252.787
13.6814 16.5686 248.503
14.729 16.5686 248.503
15.7766 16.5686 248.503
16.8242 16.5686 248.503
17.8717 16.5686 248.503
19.2455 16.8542 252.787
19.9669 16.5686 248.503
21.3768 16.8542 252.787
22.0621 16.5686 248.503
23.1097 16.5686 248.503
24.5738 16.8542 252.787
26.5551 17.4562 261.815
27.6588 17.4562 261.815
28.2579 17.1499 257.222
29.3422 17.1499 257.222
19.0094 7.69721 115.446
19.1938 7.57787 113.656
19.8267 7.63707 114.544
20.4695 7.69721 115.446
21.2914 7.82036 117.293
20.7881 7.46218 111.921
20.9402 7.34996 110.238
20.7799 7.13537 107.019
21.2311 7.13537 107.019
21.6822 7.13537 107.019
22.1334 7.13537 107.019
22.4209 7.08366 106.244
22.8688 7.08366 106.244
23.3166 7.08366 106.244
23.7645 7.08366 106.244
24.0382 7.0327 105.48
24.4829 7.0327 105.48
24.7495 6.98247 104.726
25.0123 6.93294 103.983
25.4506 6.93294 103.983
25.889 6.93294 103.983
26.5154 6.98247 104.726
26.9569 6.98247 104.726
27.5955 7.0327 105.48
28.0401 7.0327 105.48
28.6912 7.08366 106.244
28.9294 7.0327 105.48
29.3741 7.0327 105.48
29.8188 7.0327 105.48
30.2634 7.0327 105.48
30.7081 7.0327 105.48
31.1527 7.0327 105.48
31.5974 7.0327 105.48
32.0421 7.0327 105.48
32.4867 7.0327 105.48
32.9314 7.0327 105.48
33.1376 6.98247 104.726
33.8207 7.0327 105.48
34.5136 7.08366 106.244
34.4621 6.98247 104.726
34.9036 6.98247 104.726
34.8472 6.88412 103.251
35.0358 6.83598 102.529
35.468 6.83598 102.529
35.405 6.74169 101.115
35.3438 6.64997 99.7392
35.5226 6.60504 99.0653
35.9402 6.60504 99.0653
36.5286 6.56071 98.4004
36.9434 6.56071 98.4004
37.3583 6.56071 98.4004
37.7731 6.56071 98.4004
38.1879 6.56071 98.4004
38.3454 6.51697 97.7444
38.7574 6.51697 97.7444
38.9101 6.47381 97.0971
39.5815 6.51697 97.7444
39.9936 6.51697 97.7444
39.7575 6.3477 95.2056
39.6439 6.26632 93.985
40.0401 6.26632 93.985
40.1788 6.2264 93.3864
40.5725 6.2264 93.3864
41.7642 6.3477 95.2056
42.4411 6.38918 95.8278
42.8451 6.38918 95.8278
43.5336 6.43122 96.4583
123.682 17.7736 266.576
124.806 17.7736 266.576
133.195 18.7989 281.955
139.759 19.5509 293.233
138.231 19.1676 287.484
139.443 19.1676 287.484
137.95 18.7989 281.955
147.657 19.9499 299.218
55.2314 3.59392 53.9032
-34.8729 7.07043 99.7392
-34.6884 7.11885 100.422
-34.741 7.21773 101.817
-34.5517 7.2682 102.529
-34.3598 7.31939 103.251
-34.1651 7.3713 103.983
-33.9677 7.42395 104.726
-33.7674 7.47736 105.48
-33.3227 7.47736 105.48
-32.8781 7.47736 105.48
-32.2017 7.42395 104.726
-31.9887 7.47736 105.48
-31.5441 7.47736 105.48
-31.5534 7.58652 107.019
-30.8769 7.53154 106.244
-30.6511 7.58652 107.019
-30.422 7.6423 107.806
-30.1896 7.69891 108.605
-29.5131 7.6423 107.806
-29.0586 7.6423 107.806
-29.0311 7.75636 109.415
-28.3582 7.69891 108.605
-28.1086 7.75636 109.415
-27.6473 7.75636 109.415
-27.3905 7.81468 110.238
-26.9258 7.81468 110.238
-26.4611 7.81468 110.238
-25.4229 7.6423 107.806
-24.9684 7.6423 107.806
-24.335 7.58652 107.019
-23.8839 7.58652 107.019
-23.605 7.6423 107.806
-22.9816 7.58652 107.019
-22.3672 7.53154 106.244
-22.0793 7.58652 107.019
-21.6281 7.58652 107.019
-21.177 7.58652 107.019
-20.7258 7.58652 107.019
-20.2747 7.58652 107.019
-19.8235 7.58652 107.019
-19.3724 7.58652 107.019
-18.7841 7.53154 106.244
-18.4701 7.58652 107.019
-18.0189 7.58652 107.019
-17.5678 7.58652 107.019
-16.9926 7.53154 106.244
-16.5447 7.53154 106.244
-16.0968 7.53154 106.244
-15.7632 7.58652 107.019
-15.2011 7.53154 106.244
-14.7532 7.53154 106.244
-14.4097 7.58652 107.019
-13.8574 7.53154 106.244
-13.6068 7.6423 107.806
-16.9304 10.1897 143.742
-16.4861 10.2906 145.165
-15.7185 10.1897 143.742
-15.2622 10.2906 145.165
-14.6502 10.2906 145.165
-14.1787 10.3935 146.617
-13.4263 10.2906 145.165
-12.8144 10.2906 145.165
-12.3244 10.3935 146.617
-11.8246 10.4985 148.098
-11.2003 10.4985 148.098
-10.6839 10.6056 149.609
-10.1569 10.715 151.151
-9.72007 10.9406 154.333
-9.16595 11.0569 155.975
-8.50843 11.0569 155.975
-7.93532 11.1758 157.652
-7.51308 11.5484 162.907
-6.90303 11.6781 164.738
-5.9869 20.3795 287.484
-4.5948 19.6104 276.635
-2.03237 17.6161 248.503
-1.00176 17.9199 252.787
0.0638874 17.9199 252.787
1.14935 18.2343 257.222
2.19518 17.9199 252.787
3.20556 17.6161 248.503
4.32647 17.9199 252.787
5.39212 17.9199 252.787
6.34831 17.6161 248.503
7.52341 17.9199 252.787
8.44348 17.6161 248.503
9.49107 17.6161 248.503
10.363 17.3225 244.361
11.5862 17.6161 248.503
12.6338 17.6161 248.503
13.4534 17.3225 244.361
14.4835 17.3225 244.361
15.5136 17.3225 244.361
16.5438 17.3225 244.361
17.5739 17.3225 244.361
18.9193 17.6161 248.503
19.9669 17.6161 248.503
21.3768 17.9199 252.787
22.0621 17.6161 248.503
22.7245 17.3225 244.361
24.1573 17.6161 248.503
26.0892 18.2343 257.222
27.1736 18.2343 257.222
29.3422 18.2343 257.222
19.1603 8.24883 116.362
19.3438 8.11994 114.544
19.8267 8.11994 114.544
20.4695 8.18388 115.446
21.2914 8.31482 117.293
20.948 7.99502 112.782
21.2599 7.93399 111.921
21.3872 7.6423 107.806
22.1677 7.75636 109.415
22.2961 7.6423 107.806
22.5845 7.58652 107.019
22.8688 7.53154 106.244
23.4868 7.58652 107.019
23.938 7.58652 107.019
24.2124 7.53154 106.244
24.6603 7.53154 106.244
24.9275 7.47736 105.48
25.191 7.42395 104.726
25.4506 7.3713 103.983
25.889 7.3713 103.983
26.3273 7.3713 103.983
26.9569 7.42395 104.726
27.5955 7.47736 105.48
28.0401 7.47736 105.48
28.6912 7.53154 106.244
28.9294 7.47736 105.48
29.3741 7.47736 105.48
29.8188 7.47736 105.48
30.2634 7.47736 105.48
30.4887 7.42395 104.726
31.1527 7.47736 105.48
31.5974 7.47736 105.48
32.0421 7.47736 105.48
32.4867 7.47736 105.48
32.9314 7.47736 105.48
33.376 7.47736 105.48
33.8207 7.47736 105.48
34.5136 7.53154 106.244
34.71 7.47736 105.48
34.9036 7.42395 104.726
35.0944 7.3713 103.983
35.2825 7.31939 103.251
35.7178 7.31939 103.251
35.6509 7.21773 101.817
37.3583 6.97552 98.4004
37.7731 6.97552 98.4004
38.1879 6.97552 98.4004
38.3454 6.92902 97.7444
38.7574 6.92902 97.7444
38.9101 6.88313 97.0971
39.5815 6.92902 97.7444
39.9936 6.92902 97.7444
38.7509 6.57818 92.7953
38.8959 6.53681 92.2117
39.5333 6.57818 92.7953
39.6734 6.53681 92.2117
40.3157 6.57818 92.7953
41.4947 6.7055 94.5914
42.4411 6.79316 95.8278
42.8451 6.79316 95.8278
43.5336 6.83785 96.4583
123.682 18.8973 266.576
124.806 18.8973 266.576
133.195 19.9876 281.955
137.019 20.3795 287.484
135.572 19.9876 281.955
139.443 20.3795 287.484
137.95 19.9876 281.955
147.657 21.2113 299.218
155.255 22.1139 311.95
159.974 22.5946 318.732
-34.6884 7.54219 100.422
-34.741 7.64695 101.817
-34.5517 7.70042 102.529
-34.3598 7.75465 103.251
-34.1651 7.80965 103.983
-33.9677 7.86543 104.726
-33.5262 7.86543 104.726
-33.3227 7.92202 105.48
-32.6432 7.86543 104.726
-32.2017 7.86543 104.726
-31.9887 7.92202 105.48
-31.5441 7.92202 105.48
-31.3248 7.97942 106.244
-30.8769 7.97942 106.244
-30.6511 8.03767 107.019
-30.422 8.09677 107.806
-30.1896 8.15674 108.605
-29.5131 8.09677 107.806
-29.0586 8.09677 107.806
-29.0311 8.21761 109.415
-28.3582 8.15674 108.605
-28.1086 8.21761 109.415
-27.6473 8.21761 109.415
-27.3905 8.2794 110.238
-26.9258 8.2794 110.238
-26.2636 8.21761 109.415
-24.7862 8.03767 107.019
-24.335 8.03767 107.019
-23.8839 8.03767 107.019
-23.4327 8.03767 107.019
-22.9816 8.03767 107.019
-22.2063 7.92202 105.48
-22.0793 8.03767 107.019
-21.6281 8.03767 107.019
-21.177 8.03767 107.019
-20.7258 8.03767 107.019
-20.1278 7.97942 106.244
-19.8235 8.03767 107.019
-19.232 7.97942 106.244
-18.7841 7.97942 106.244
-18.3362 7.97942 106.244
-17.8884 7.97942 106.244
-17.4405 7.97942 106.244
-16.9926 7.97942 106.244
-16.5447 7.97942 106.244
-15.981 7.92202 105.48
-15.7632 8.03767 107.019
-15.0917 7.92202 105.48
-14.7532 7.97942 106.244
-14.3053 7.97942 106.244
-13.8574 7.97942 106.244
-13.5074 8.03767 107.019
-13.7593 8.47046 112.782
-16.4861 10.9026 145.165
-15.7185 10.7957 143.742
-15.2622 10.9026 145.165
-14.6502 10.9026 145.165
-14.1787 11.0116 146.617
-13.4263 10.9026 145.165
-12.8144 10.9026 145.165
-12.3244 11.0116 146.617
-11.8246 11.1228 148.098
-11.2003 11.1228 148.098
-10.6839 11.2363 149.609
-10.1569 11.3522 151.151
-9.82348 11.7145 155.975
-9.26451 11.8404 157.652
-8.59991 11.8404 157.652
-8.02157 11.9691 159.366
-7.68383 12.5132 166.61
-7.14383 12.8042 170.484
-8.37215 16.6842 222.146
-5.87177 21.1762 281.955
-4.42772 20.0211 266.576
-2.03237 18.6637 248.503
-0.98478 18.6637 248.503
0.0638874 18.9855 252.787
1.12953 18.9855 252.787
2.15797 18.6637 248.503
3.10046 18.0518 240.355
4.25314 18.6637 248.503
5.30073 18.6637 248.503
6.24251 18.3527 244.361
7.3959 18.6637 248.503
8.30276 18.3527 244.361
9.17988 18.0518 240.355
10.0287 17.7606 236.478
11.2064 18.0518 240.355
12.2196 18.0518 240.355
13.0194 17.7606 236.478
14.2461 18.0518 240.355
15.2593 18.0518 240.355
16.2725 18.0518 240.355
17.2858 18.0518 240.355
18.604 18.3527 244.361
19.6341 18.3527 244.361
21.0145 18.6637 248.503
21.3387 18.0518 240.355
22.352 18.0518 240.355
23.7546 18.3527 244.361
19.1603 8.73937 116.362
19.1938 8.53613 113.656
19.8267 8.60281 114.544
20.3095 8.60281 114.544
21.1224 8.73937 116.362
20.948 8.47046 112.782
21.2599 8.4058 111.921
21.4049 8.2794 110.238
21.5456 8.15674 108.605
22.2961 8.09677 107.806
22.7506 8.09677 107.806
22.8688 7.97942 106.244
23.4868 8.03767 107.019
23.938 8.03767 107.019
24.2124 7.97942 106.244
24.6603 7.97942 106.244
24.9275 7.92202 105.48
25.0123 7.80965 103.983
25.4506 7.80965 103.983
25.7067 7.75465 103.251
26.1419 7.75465 103.251
26.9569 7.86543 104.726
27.5955 7.92202 105.48
28.0401 7.92202 105.48
28.6912 7.97942 106.244
28.9294 7.92202 105.48
29.3741 7.92202 105.48
29.8188 7.92202 105.48
30.2634 7.92202 105.48
30.7081 7.92202 105.48
31.1527 7.92202 105.48
31.5974 7.92202 105.48
32.2742 7.97942 106.244
32.4867 7.92202 105.48
32.9314 7.92202 105.48
33.376 7.92202 105.48
34.0658 7.97942 106.244
34.5136 7.97942 106.244
34.71 7.92202 105.48
35.1547 7.92202 105.48
35.345 7.86543 104.726
35.5327 7.80965 103.983
28.5976 5.92022 78.8261
37.7731 7.39034 98.4004
38.1879 7.39034 98.4004
38.3454 7.34107 97.7444
38.7574 7.34107 97.7444
38.6541 7.24448 96.4583
39.3194 7.29245 97.0971
39.7287 7.29245 97.0971
41.8935 7.10426 94.5914
42.0212 7.05872 93.985
115.297 18.6637 248.503
120.427 19.3186 257.222
128.262 20.3919 271.512
134.384 21.1762 281.955
133.014 20.7766 276.635
136.761 21.1762 281.955
135.347 20.7766 276.635
147.657 22.4727 299.218
155.255 23.4289 311.95
159.974 23.9383 318.732
-34.9277 8.02047 101.115
-34.9839 8.13264 102.529
-34.795 8.18991 103.251
-34.3598 8.18991 103.251
-34.1651 8.248 103.983
-33.9677 8.30691 104.726
-33.5262 8.30691 104.726
-33.0847 8.30691 104.726
-32.6432 8.30691 104.726
-31.9733 8.248 103.983
-31.7602 8.30691 104.726
-31.5441 8.36667 105.48
-31.3248 8.4273 106.244
-30.8769 8.4273 106.244
-30.6511 8.48882 107.019
-30.422 8.55123 107.806
-30.1896 8.61458 108.605
-29.7317 8.61458 108.605
-29.2739 8.61458 108.605
-29.0311 8.67886 109.415
-28.3582 8.61458 108.605
-28.1086 8.67886 109.415
-27.6473 8.67886 109.415
-27.598 8.81036 111.073
-27.1298 8.81036 111.073
-26.2636 8.67886 109.415
-24.7862 8.48882 107.019
-24.335 8.48882 107.019
-23.8839 8.48882 107.019
-23.4327 8.48882 107.019
-22.8151 8.4273 106.244
-22.2063 8.36667 105.48
-21.9193 8.4273 106.244
-21.4714 8.4273 106.244
-21.0235 8.4273 106.244
-20.7258 8.48882 107.019
-20.1278 8.4273 106.244
-19.6799 8.4273 106.244
-19.232 8.4273 106.244
-18.649 8.36667 105.48
-18.3362 8.4273 106.244
-17.7597 8.36667 105.48
-17.4405 8.4273 106.244
-16.8704 8.36667 105.48
-16.4257 8.36667 105.48
-15.981 8.36667 105.48
-15.649 8.4273 106.244
-15.0917 8.36667 105.48
-14.6471 8.36667 105.48
-14.3053 8.4273 106.244
-13.8574 8.4273 106.244
-13.5074 8.48882 107.019
-13.6543 8.87762 111.921
-16.4861 11.5145 145.165
-15.7185 11.4016 143.742
-15.2622 11.5145 145.165
-14.6502 11.5145 145.165
-14.0383 11.5145 145.165
-13.2947 11.4016 143.742
-12.5656 11.2909 142.346
-12.0828 11.4016 143.742
-11.7064 11.6297 146.617
-10.9785 11.5145 145.165
-10.576 11.7471 148.098
-10.1569 11.9894 151.151
-9.82348 12.372 155.975
-9.46813 12.7799 161.117
-8.78892 12.7799 161.117
-8.29196 13.0671 164.738
-8.50095 17.8918 225.564
-7.66804 18.1714 229.088
-4.34865 20.7673 261.815
-3.13305 20.0512 252.787
-2.03237 19.7113 248.503
-1.00176 20.0512 252.787
0.0638874 20.0512 252.787
1.12953 20.0512 252.787
2.15797 19.7113 248.503
3.10046 19.065 240.355
4.25314 19.7113 248.503
5.21238 19.3828 244.361
6.24251 19.3828 244.361
7.27263 19.3828 244.361
8.30276 19.3828 244.361
9.17988 19.065 240.355
10.0287 18.7575 236.478
11.0256 18.7575 236.478
12.2196 19.065 240.355
13.0194 18.7575 236.478
14.0163 18.7575 236.478
15.0132 18.7575 236.478
16.2725 19.065 240.355
17.2858 19.065 240.355
18.604 19.3828 244.361
19.6341 19.3828 244.361
20.6643 19.3828 244.361
21.3387 19.065 240.355
22.352 19.065 240.355
19.3136 9.30374 117.293
19.6508 9.2299 116.362
19.9828 9.15723 115.446
20.6319 9.2299 116.362
21.2914 9.30374 117.293
21.4428 9.15723 115.446
21.5895 9.01525 113.656
21.567 8.81036 111.073
21.5456 8.61458 108.605
22.3343 8.74412 110.238
22.4613 8.61458 108.605
22.9191 8.61458 108.605
23.6595 8.55123 107.806
23.938 8.48882 107.019
24.2124 8.4273 106.244
24.6603 8.4273 106.244
24.9275 8.36667 105.48
25.0123 8.248 103.983
25.2714 8.18991 103.251
25.5269 8.13264 102.529
25.7789 8.07617 101.817
26.5772 8.18991 103.251
27.204 8.248 103.983
27.8398 8.30691 104.726
28.2813 8.30691 104.726
28.7228 8.30691 104.726
29.1643 8.30691 104.726
29.6058 8.30691 104.726
30.0473 8.30691 104.726
30.4887 8.30691 104.726
31.1527 8.36667 105.48
31.3717 8.30691 104.726
32.0421 8.36667 105.48
32.4867 8.36667 105.48
32.9314 8.36667 105.48
33.376 8.36667 105.48
34.5136 8.4273 106.244
34.71 8.36667 105.48
35.1547 8.36667 105.48
35.345 8.30691 104.726
28.4181 6.28631 79.2522
28.5976 6.25251 78.8261
29.0863 6.28631 79.2522
29.5802 6.32048 79.6829
30.7518 6.49703 81.9087
38.1879 7.80515 98.4004
38.3454 7.75312 97.7444
38.7574 7.75312 97.7444
38.4014 7.6011 95.8278
39.7287 7.70177 97.0971
118.351 20.0512 252.787
125.93 21.1449 266.576
134.384 22.3648 281.955
133.014 21.9428 276.635
134.181 21.9428 276.635
135.347 21.9428 276.635
150.733 24.2285 305.451
155.255 24.744 311.95
159.974 25.2819 318.732
-35.1702 8.50538 101.817
-35.2303 8.62518 103.251
-35.0418 8.68635 103.983
-34.6035 8.68635 103.983
-34.4091 8.74839 104.726
-34.212 8.81133 105.48
-33.7674 8.81133 105.48
-33.3227 8.81133 105.48
-32.6432 8.74839 104.726
-32.2017 8.74839 104.726
-31.9887 8.81133 105.48
-31.5441 8.81133 105.48
-31.5534 8.93997 107.019
-31.1023 8.93997 107.019
-30.8765 9.0057 107.806
-30.6474 9.07241 108.605
-30.4148 9.14011 109.415
-29.9536 9.14011 109.415
-29.4923 9.14011 109.415
-29.471 9.2786 111.073
-28.7847 9.20884 110.238
-28.5345 9.2786 111.073
-27.6473 9.14011 109.415
-27.598 9.2786 111.073
-27.1298 9.2786 111.073
-26.4611 9.20884 110.238
-25.4229 9.0057 107.806
-24.9684 9.0057 107.806
-24.514 9.0057 107.806
-23.8839 8.93997 107.019
-23.4327 8.93997 107.019
-22.9816 8.93997 107.019
-22.3672 8.87518 106.244
-22.0793 8.93997 107.019
-21.4714 8.87518 106.244
-21.0235 8.87518 106.244
-20.5756 8.87518 106.244
-19.983 8.81133 105.48
-19.6799 8.87518 106.244
-19.0936 8.81133 105.48
-18.5158 8.74839 104.726
-18.2043 8.81133 105.48
-17.7597 8.81133 105.48
-17.315 8.81133 105.48
-16.8704 8.81133 105.48
-16.4257 8.81133 105.48
-15.981 8.81133 105.48
-15.649 8.87518 106.244
-15.0917 8.81133 105.48
-14.6471 8.81133 105.48
-14.3053 8.87518 106.244
-13.8574 8.87518 106.244
-13.5074 8.93997 107.019
-13.5508 9.2786 111.073
-12.9842 9.20884 110.238
-16.3245 12.0076 143.742
-15.5659 11.891 142.346
-15.1126 12.0076 143.742
-14.5066 12.0076 143.742
-11.4768 12.0076 143.742
-10.7653 11.891 142.346
-10.3666 12.1265 145.165
-10.1569 12.6265 151.151
-9.92911 13.1696 157.652
-9.68089 13.7615 164.738
-8.98643 13.7615 164.738
-8.48258 14.0779 168.525
-8.45221 15.3097 183.271
-7.87653 15.7022 187.97
-8.2472 18.2802 218.831
-7.32469 18.2802 218.831
-6.4992 18.5572 222.146
-4.1987 21.1168 252.787
-3.02862 20.4129 244.361
-1.99849 20.4129 244.361
-0.968367 20.4129 244.361
0.0628046 20.7589 248.503
1.11039 20.7589 248.503
2.08722 20.0783 240.355
3.00203 19.4409 232.725
4.1137 20.0783 240.355
5.12693 20.0783 240.355
5.94525 19.4409 232.725
7.03803 19.7544 236.478
8.03493 19.7544 236.478
8.74958 19.1371 229.088
9.42092 18.5572 222.146
10.5167 18.8427 225.564
11.4676 18.8427 225.564
12.2303 18.5572 222.146
13.1668 18.5572 222.146
14.3203 18.8427 225.564
15.2712 18.8427 225.564
16.4755 19.1371 229.088
19.9977 19.7544 236.478
9.29428 7.65485 91.6354
9.62045 7.6073 91.0662
19.6276 9.95752 119.2
19.9678 9.87722 118.239
20.3025 9.7982 117.293
20.9647 9.87722 118.239
21.6376 9.95752 119.2
21.9616 9.87722 118.239
22.2803 9.7982 117.293
21.8696 9.20884 110.238
22.6753 9.34943 111.921
22.9718 9.2786 111.073
23.44 9.2786 111.073
24.8403 8.93997 107.019
25.1082 8.87518 106.244
25.0123 8.68635 103.983
25.7067 8.62518 103.251
25.9591 8.56486 102.529
26.5772 8.62518 103.251
27.204 8.68635 103.983
27.6424 8.68635 103.983
28.0807 8.68635 103.983
28.5191 8.68635 103.983
28.9575 8.68635 103.983
29.6058 8.74839 104.726
30.0473 8.74839 104.726
30.4887 8.74839 104.726
30.9302 8.74839 104.726
31.1492 8.68635 103.983
31.8132 8.74839 104.726
32.2547 8.74839 104.726
32.9314 8.81133 105.48
33.376 8.81133 105.48
34.5136 8.87518 106.244
34.71 8.81133 105.48
34.9036 8.74839 104.726
27.933 6.58481 78.8261
28.2653 6.58481 78.8261
28.5976 6.58481 78.8261
28.9299 6.58481 78.8261
29.4204 6.62041 79.2522
30.581 6.80431 81.4537
38.0914 8.11109 97.0971
92.3387 16.7777 200.845
118.351 21.1168 252.787
128.262 22.681 271.512
134.384 23.5534 281.955
133.014 23.109 276.635
134.181 23.109 276.635
135.347 23.109 276.635
150.733 25.5162 305.451
155.255 26.059 311.95
159.974 26.6255 318.732
-35.6656 9.06044 103.251
-35.4802 9.1247 103.983
-35.2921 9.18988 104.726
-34.8506 9.18988 104.726
-34.6567 9.25599 105.48
-34.212 9.25599 105.48
-33.7674 9.25599 105.48
-33.3227 9.25599 105.48
-32.6432 9.18988 104.726
-32.2017 9.18988 104.726
-31.9887 9.25599 105.48
-31.5441 9.25599 105.48
-31.5534 9.39112 107.019
-31.1023 9.39112 107.019
-30.8765 9.46017 107.806
-30.8761 9.60136 109.415
-30.6435 9.67355 110.238
-30.1788 9.67355 110.238
-29.7141 9.67355 110.238
-29.6959 9.82124 111.921
-29.0027 9.74684 111.073
-28.7523 9.82124 111.921
-27.8552 9.67355 110.238
-27.8087 9.82124 111.921
-27.3369 9.82124 111.921
-26.4611 9.67355 110.238
-24.7862 9.39112 107.019
-24.514 9.46017 107.806
-23.8839 9.39112 107.019
-23.4327 9.39112 107.019
-22.9816 9.39112 107.019
-22.3672 9.32306 106.244
-22.0793 9.39112 107.019
-21.4714 9.32306 106.244
-21.0235 9.32306 106.244
-20.5756 9.32306 106.244
-19.983 9.25599 105.48
-19.6799 9.32306 106.244
-19.0936 9.25599 105.48
-18.5158 9.18988 104.726
-18.2043 9.25599 105.48
-17.7597 9.25599 105.48
-17.315 9.25599 105.48
-16.8704 9.25599 105.48
-16.4257 9.25599 105.48
-15.981 9.25599 105.48
-15.7632 9.39112 107.019
-15.0917 9.25599 105.48
-14.7532 9.32306 106.244
-14.3053 9.32306 106.244
-13.8574 9.32306 106.244
-13.5074 9.39112 107.019
-13.449 9.67355 110.238
-12.9842 9.67355 110.238
-15.1126 12.6136 143.742
-14.3658 12.4911 142.346
-11.2071 10.6329 121.171
-10.6963 10.6329 121.171
-10.5603 12.2532 139.635
-10.0532 13.1284 149.609
-9.90344 14.7883 168.525
-9.08855 14.6203 166.61
-8.78152 16.7089 190.411
-8.08381 16.9287 192.917
-8.2472 19.2027 218.831
-7.32469 19.2027 218.831
-6.40219 19.2027 218.831
-4.05874 21.443 244.361
-2.93092 20.7513 236.478
-1.96573 21.0915 240.355
-0.952492 21.0915 240.355
0.0607454 21.0915 240.355
1.07398 21.0915 240.355
2.02096 20.4219 232.725
2.86558 19.4937 222.146
3.9831 20.4219 232.725
4.96417 20.4219 232.725
5.76232 19.7936 225.564
6.81809 20.1029 229.088
7.78384 20.1029 229.088
8.48444 19.4937 222.146
9.28031 19.2027 218.831
10.0528 18.9203 215.613
11.1253 19.2027 218.831
11.8706 18.9203 215.613
12.7796 18.9203 215.613
13.6885 18.9203 215.613
14.8153 19.2027 218.831
15.7378 19.2027 218.831
8.85266 7.9912 91.0662
9.17954 7.94187 90.5041
9.44447 7.84502 89.4004
11.6561 7.56813 86.2451
11.9494 7.52388 85.7407
12.0295 7.3519 83.7809
12.3123 7.31013 83.3049
12.592 7.26883 82.8342
25.0229 9.46017 107.806
25.3722 9.25599 105.48
25.889 9.1247 103.983
26.3273 9.1247 103.983
26.7657 9.1247 103.983
27.3984 9.18988 104.726
27.8398 9.18988 104.726
28.2813 9.18988 104.726
28.7228 9.18988 104.726
29.1643 9.18988 104.726
29.8188 9.25599 105.48
30.2634 9.25599 105.48
30.4887 9.18988 104.726
30.9302 9.18988 104.726
31.3717 9.18988 104.726
31.8132 9.18988 104.726
32.2547 9.18988 104.726
32.9314 9.25599 105.48
33.376 9.25599 105.48
26.792 6.88012 78.4046
27.1226 6.88012 78.4046
27.4531 6.88012 78.4046
27.7836 6.88012 78.4046
28.1141 6.88012 78.4046
28.4447 6.88012 78.4046
28.9299 6.91711 78.8261
29.4204 6.9545 79.2522
30.412 7.10819 81.0036
91.0909 17.3863 198.131
114.406 21.443 244.361
137.019 25.2271 287.484
133.014 24.2751 276.635
134.181 24.2751 276.635
150.733 26.8038 305.451
152.021 26.8038 305.451
153.308 26.8038 305.451
-36.3569 9.56305 103.983
-35.9185 9.56305 103.983
-35.7336 9.63136 104.726
-35.2921 9.63136 104.726
-35.1013 9.70065 105.48
-34.6567 9.70065 105.48
-34.212 9.70065 105.48
-34.0121 9.77094 106.244
-33.3227 9.70065 105.48
-32.6432 9.63136 104.726
-32.2017 9.63136 104.726
-31.9887 9.70065 105.48
-31.7727 9.77094 106.244
-31.5534 9.84226 107.019
-31.331 9.91463 107.806
-31.1052 9.98808 108.605
-31.1082 10.1383 110.238
-30.8757 10.2151 111.073
-30.4074 10.2151 111.073
-30.1677 10.2931 111.921
-28.2805 10.2931 111.921
-28.0226 10.3722 112.782
-27.3369 10.2931 111.921
-26.4611 10.1383 110.238
-25.2373 9.84226 107.019
-24.7862 9.84226 107.019
-24.335 9.84226 107.019
-23.8839 9.84226 107.019
-23.4327 9.84226 107.019
-22.9816 9.84226 107.019
-22.3672 9.77094 106.244
-21.9193 9.77094 106.244
-21.4714 9.77094 106.244
-21.0235 9.77094 106.244
-20.5756 9.77094 106.244
-19.983 9.70065 105.48
-19.5383 9.70065 105.48
-18.9573 9.63136 104.726
-18.5158 9.63136 104.726
-18.2043 9.70065 105.48
-17.7597 9.70065 105.48
-17.315 9.70065 105.48
-16.8704 9.70065 105.48
-16.4257 9.70065 105.48
-15.981 9.70065 105.48
-15.7632 9.84226 107.019
-15.2011 9.77094 106.244
-14.7532 9.77094 106.244
-14.3053 9.77094 106.244
-13.8574 9.77094 106.244
-13.5074 9.84226 107.019
-13.449 10.1383 110.238
-12.9842 10.1383 110.238
-11.5274 10.9625 119.2
-11.1152 11.0524 120.178
-10.6963 11.1437 121.171
-10.1855 11.1437 121.171
-10.0186 15.679 170.484
-9.29991 15.679 170.484
-9.01569 17.9785 195.489
-8.30229 18.2215 198.131
-8.12591 19.8293 215.613
-7.21698 19.8293 215.613
-6.30804 19.8293 215.613
-3.86547 21.403 232.725
-2.83933 21.0686 229.088
-1.90333 21.403 232.725
-0.93713 21.7482 236.478
0.0597656 21.7482 236.478
1.05666 21.7482 236.478
1.98938 21.0686 229.088
2.82281 20.1252 218.831
3.92087 21.0686 229.088
4.88661 21.0686 229.088
5.67501 20.4302 222.146
6.7132 20.7445 225.564
7.66408 20.7445 225.564
8.35781 20.1252 218.831
9.14383 19.8293 215.613
10.0528 19.8293 215.613
10.9617 19.8293 215.613
11.6986 19.5419 212.488
12.5944 19.5419 212.488
7.98566 8.27233 89.9488
8.41648 8.3234 90.5041
8.74404 8.27233 89.9488
9.06759 8.22189 89.4004
9.38723 8.17206 88.8585
9.82134 8.22189 89.4004
11.033 7.74937 84.2624
11.454 7.79416 84.7495
11.88 7.83948 85.2422
11.9611 7.66131 83.3049
12.174 7.57523 82.3689
12.5212 7.57523 82.3689
13.0147 7.66131 83.3049
13.2903 7.61802 82.8342
26.0739 9.63136 104.726
26.9569 9.63136 104.726
27.3984 9.63136 104.726
27.8398 9.63136 104.726
28.2813 9.63136 104.726
28.9294 9.70065 105.48
29.3741 9.70065 105.48
29.8188 9.70065 105.48
30.2634 9.70065 105.48
30.4887 9.63136 104.726
31.3717 9.63136 104.726
32.0421 9.70065 105.48
32.4867 9.70065 105.48
26.792 7.21064 78.4046
27.1226 7.21064 78.4046
27.4531 7.21064 78.4046
27.7836 7.21064 78.4046
28.1141 7.21064 78.4046
28.4447 7.21064 78.4046
28.7752 7.21064 78.4046
29.2622 7.24941 78.8261
30.0796 7.36825 80.1184
30.9243 7.49106 81.4537
31.7977 7.61802 82.8342
33.8001 7.83948 85.2422
86.7392 17.5116 190.411
89.8763 17.9785 195.489
91.9261 18.2215 198.131
133.014 25.4413 276.635
-36.9714 9.93097 103.251
-36.7952 10.0014 103.983
-36.3569 10.0014 103.983
-36.1751 10.0728 104.726
-35.9907 10.1453 105.48
-35.546 10.1453 105.48
-35.3557 10.2188 106.244
-34.9078 10.2188 106.244
-34.4599 10.2188 106.244
-34.0121 10.2188 106.244
-33.5642 10.2188 106.244
-32.8781 10.1453 105.48
-32.4334 10.1453 105.48
-32.2205 10.2188 106.244
-31.7727 10.2188 106.244
-31.7854 10.3691 107.806
-31.331 10.3691 107.806
-31.3373 10.5239 109.415
-31.5832 10.7649 111.921
-31.5937 10.9318 113.656
-31.1146 10.9318 113.656
-31.1179 11.1039 115.446
-31.1213 11.2816 117.293
-30.6269 11.2816 117.293
-30.1324 11.2816 117.293
-29.1712 11.1039 115.446
-28.9122 11.192 116.362
-28.1979 11.1039 115.446
-26.8651 10.7649 111.921
-24.7862 10.2934 107.019
-24.514 10.3691 107.806
-24.0595 10.3691 107.806
-23.4327 10.2934 107.019
-22.9816 10.2934 107.019
-22.5304 10.2934 107.019
-22.0793 10.2934 107.019
-21.4714 10.2188 106.244
-21.0235 10.2188 106.244
-20.5756 10.2188 106.244
-19.983 10.1453 105.48
-19.6799 10.2188 106.244
-19.0936 10.1453 105.48
-18.5158 10.0728 104.726
-18.2043 10.1453 105.48
-17.7597 10.1453 105.48
-17.315 10.1453 105.48
-16.8704 10.1453 105.48
-16.4257 10.1453 105.48
-15.981 10.1453 105.48
-15.8791 10.3691 107.806
-15.2011 10.2188 106.244
-14.8609 10.2934 107.019
-14.4097 10.2934 107.019
-13.9586 10.2934 107.019
-13.6068 10.3691 107.806
-13.449 10.603 110.238
-12.9842 10.603 110.238
-12.6351 11.559 120.178
-12.2287 11.6545 121.171
-11.5274 11.465 119.2
-11.1152 11.559 120.178
-10.6086 11.559 120.178
-10.102 11.559 120.178
-9.67469 11.6545 121.171
-9.16388 11.6545 121.171
-10.3807 16.9903 176.646
-9.52133 16.7881 174.544
-9.58422 18.3143 190.411
-9.13753 19.0567 198.131
-8.41602 19.3178 200.845
-8.12591 20.7382 215.613
-7.11238 20.4376 212.488
-6.21662 20.4376 212.488
-5.47969 21.0477 218.831
-4.92471 22.7451 236.478
-3.68977 21.3666 222.146
-2.75329 21.3666 222.146
-1.84476 21.6954 225.564
-0.922255 22.3841 232.725
0.058817 22.3841 232.725
1.03989 22.3841 232.725
1.95878 21.6954 225.564
2.78129 20.7382 215.613
3.86055 21.6954 225.564
4.81143 21.6954 225.564
5.59031 21.0477 218.831
6.61148 21.3666 222.146
7.54796 21.3666 222.146
8.35781 21.0477 218.831
9.01131 20.4376 212.488
9.90707 20.4376 212.488
10.8028 20.4376 212.488
11.6986 20.4376 212.488
12.5944 20.4376 212.488
13.4901 20.4376 212.488
7.88887 8.54665 88.8585
8.26346 8.54665 88.8585
8.63805 8.54665 88.8585
8.95835 8.49517 88.3232
9.2196 8.39403 87.2718
9.5875 8.39403 87.2718
10.6778 8.10458 84.2624
10.9699 8.05827 83.7809
11.3882 8.10458 84.2624
11.8113 8.15143 84.7495
11.9611 8.01249 83.3049
12.174 7.92246 82.3689
12.5212 7.92246 82.3689
13.0147 8.01249 83.3049
13.2903 7.96722 82.8342
13.5629 7.92246 82.3689
13.9887 7.96722 82.8342
14.4423 7.83443 81.4537
14.8683 7.8782 81.9087
15.1291 7.83443 81.4537
15.4725 7.83443 81.4537
15.9935 7.92246 82.3689
17.8299 7.96722 82.8342
18.1791 7.96722 82.8342
18.5283 7.96722 82.8342
18.7714 7.92246 82.3689
27.3984 10.0728 104.726
27.8398 10.0728 104.726
28.4848 10.1453 105.48
28.9294 10.1453 105.48
29.587 10.2188 106.244
30.0348 10.2188 106.244
24.8734 7.46136 77.5749
26.6038 7.58171 78.8261
26.9361 7.58171 78.8261
27.2684 7.58171 78.8261
27.6007 7.58171 78.8261
28.084 7.62269 79.2522
28.2653 7.58171 78.8261
28.5976 7.58171 78.8261
28.9299 7.58171 78.8261
29.4204 7.62269 79.2522
30.2449 7.74834 80.5586
31.0971 7.8782 81.9087
31.619 7.92246 82.3689
33.4407 8.19882 85.2422
33.4116 8.10458 84.2624
34.1594 8.19882 85.2422
34.3192 8.15143 84.7495
35.652 8.29528 86.2451
34.9866 8.05827 83.7809
34.1683 7.79115 81.0036
34.3201 7.74834 80.5586
34.8512 7.79115 81.0036
35.1927 7.79115 81.0036
85.9365 18.3143 190.411
86.7392 18.3143 190.411
89.8763 18.8026 195.489
91.9261 19.0567 198.131
-37.2336 10.4398 103.983
-36.7952 10.4398 103.983
-36.6166 10.5143 104.726
-36.1751 10.5143 104.726
-35.9907 10.59 105.48
-35.546 10.59 105.48
-35.3557 10.6667 106.244
-35.1626 10.7446 107.019
-34.4599 10.6667 106.244
-34.0121 10.6667 106.244
-33.5642 10.6667 106.244
-32.8781 10.59 105.48
-32.4334 10.59 105.48
-32.2205 10.6667 106.244
-32.0046 10.7446 107.019
-31.7854 10.8236 107.806
-31.5631 10.9037 108.605
-31.8122 11.1516 111.073
-31.8261 11.3231 112.782
-31.8405 11.5 114.544
-31.6046 11.5906 115.446
-31.6158 11.776 117.293
-31.3723 11.871 118.239
-30.8739 11.871 118.239
-30.3754 11.871 118.239
-29.4027 11.6826 116.362
-29.1435 11.776 117.293
-28.649 11.776 117.293
-26.8651 11.2367 111.921
-25.4229 10.8236 107.806
-24.9684 10.8236 107.806
-24.6956 10.9037 108.605
-24.2377 10.9037 108.605
-23.605 10.8236 107.806
-23.1506 10.8236 107.806
-22.5304 10.7446 107.019
-22.0793 10.7446 107.019
-21.4714 10.6667 106.244
-21.0235 10.6667 106.244
-20.5756 10.6667 106.244
-19.983 10.59 105.48
-19.5383 10.59 105.48
-18.9573 10.5143 104.726
-18.5158 10.5143 104.726
-18.2043 10.59 105.48
-17.7597 10.59 105.48
-17.315 10.59 105.48
-16.8704 10.59 105.48
-16.5447 10.6667 106.244
-16.0968 10.6667 106.244
-15.8791 10.8236 107.806
-15.2011 10.6667 106.244
-14.8609 10.7446 107.019
-14.4097 10.7446 107.019
-13.9586 10.7446 107.019
-13.6068 10.8236 107.806
-13.3486 10.9851 109.415
-12.9842 11.0677 110.238
-12.9298 11.871 118.239
-12.5324 11.9675 119.2
-12.1285 12.0656 120.178
-11.4344 11.871 118.239
-11.0249 11.9675 119.2
-10.6086 12.0656 120.178
-10.102 12.0656 120.178
-9.67469 12.1653 121.171
-9.63605 17.735 176.646
-9.83979 19.6267 195.489
-9.2627 20.1645 200.845
-8.53291 20.4445 203.634
-8.12591 21.6471 215.613
-7.21698 21.6471 215.613
-6.30804 21.6471 215.613
-5.56272 22.3031 222.146
-4.84654 23.3652 232.725
-3.68977 22.3031 222.146
-2.75329 22.3031 222.146
-1.84476 22.6462 225.564
-0.922255 23.3652 232.725
0.057898 23.0001 229.088
1.03989 23.3652 232.725
1.95878 22.6462 225.564
2.78129 21.6471 215.613
3.80205 22.3031 222.146
4.73853 22.3031 222.146
5.59031 21.9702 218.831
6.61148 22.3031 222.146
7.43531 21.9702 218.831
8.2349 21.6471 215.613
9.01131 21.3334 212.488
9.90707 21.3334 212.488
10.8028 21.3334 212.488
11.6986 21.3334 212.488
12.5944 21.3334 212.488
13.4901 21.3334 212.488
7.84134 8.8675 88.3232
8.21368 8.8675 88.3232
8.8517 8.76194 87.2718
9.16505 8.71009 86.7554
9.53077 8.71009 86.7554
9.95541 8.76194 87.2718
10.1422 8.60822 85.7407
10.3822 8.5087 84.7495
10.6167 8.41146 83.7809
10.9076 8.36367 83.3049
11.3231 8.41146 83.7809
11.6763 8.41146 83.7809
11.9611 8.36367 83.3049
12.174 8.26969 82.3689
12.4513 8.22349 81.9087
12.9411 8.31641 82.8342
13.2157 8.26969 82.3689
13.5629 8.26969 82.3689
13.9101 8.26969 82.3689
14.1777 8.22349 81.9087
14.4423 8.17781 81.4537
14.7857 8.17781 81.4537
15.1291 8.17781 81.4537
15.4725 8.17781 81.4537
15.9042 8.22349 81.9087
16.2495 8.22349 81.9087
16.688 8.26969 82.3689
17.1315 8.31641 82.8342
17.3825 8.26969 82.3689
17.7297 8.26969 82.3689
18.0769 8.26969 82.3689
18.4242 8.26969 82.3689
18.6665 8.22349 81.9087
19.0118 8.22349 81.9087
19.2496 8.17781 81.4537
19.593 8.17781 81.4537
19.6095 8.04374 80.1184
27.8398 10.5143 104.726
28.4848 10.59 105.48
28.9294 10.59 105.48
24.5464 7.78839 77.5749
24.8734 7.78839 77.5749
25.3345 7.82981 77.9875
25.8005 7.87169 78.4046
26.131 7.87169 78.4046
26.4615 7.87169 78.4046
26.792 7.87169 78.4046
27.1226 7.87169 78.4046
27.4531 7.87169 78.4046
27.933 7.91401 78.8261
28.1141 7.87169 78.4046
28.4447 7.87169 78.4046
28.7752 7.87169 78.4046
29.2622 7.91401 78.8261
30.0796 8.04374 80.1184
30.5845 8.08794 80.5586
31.2677 8.17781 81.4537
31.9663 8.26969 82.3689
33.0563 8.4598 84.2624
32.8453 8.31641 82.8342
33.5738 8.41146 83.7809
33.7342 8.36367 83.3049
35.2374 8.55817 85.2422
34.5912 8.31641 82.8342
33.9805 8.08794 80.5586
34.3201 8.08794 80.5586
34.8512 8.13263 81.0036
35.1927 8.13263 81.0036
86.254 19.3685 192.917
85.9365 19.117 190.411
86.7392 19.117 190.411
88.6937 19.3685 192.917
89.507 19.3685 192.917
92.7613 19.892 198.131
93.5966 19.892 198.131
94.4318 19.892 198.131
96.1023 19.892 198.131
95.645 19.6267 195.489
96.013 19.3685 192.917
