VERSION  1
FIELDS x y z 
SIZE 4 4 4 
TYPE F F F 
COUNT 1 1 1 
WIDTH 1970
HEIGHT 1
VIEWPOINT 0 0 0 1 0 0 0 
POINTS 1970
DATA ascii 
103.076 2.66825 257.88
93.5447 2.39756 231.718
90.1686 2.26619 219.021
92.308 2.29766 222.063
89.4672 2.20576 213.181
87.9728 2.14846 207.643
24.5034 0.487999 47.1638
24.4752 0.483719 46.7501
24.8802 0.487999 47.1638
24.9948 0.486564 47.0251
25.8674 0.499794 48.3038
26.2987 0.504365 48.7456
26.607 0.502832 48.5974
26.6392 0.499794 48.3038
27.025 0.499794 48.3038
27.0545 0.496792 48.0136
27.3284 0.498288 48.1583
35.1179 0.586637 56.697
35.2195 0.584565 56.4966
35.3204 0.582506 56.2977
35.6708 0.584565 56.4966
35.7701 0.582506 56.2977
35.995 0.582506 56.2977
35.9666 0.578433 55.904
36.5409 0.580462 56.1001
36.765 0.580462 56.1001
36.9891 0.580462 56.1001
37.0831 0.578433 55.904
34.4159 0.492356 47.5849
34.4012 0.489443 47.3034
34.4881 0.487999 47.1638
35.6222 0.501308 48.4501
35.6 0.498288 48.1583
35.578 0.495305 47.8699
35.3459 0.489443 47.3034
35.5348 0.489443 47.3034
35.8298 0.490895 47.4437
36.1265 0.492356 47.5849
36.3166 0.492356 47.5849
37.0581 0.499794 48.3038
36.5878 0.490895 47.4437
36.8868 0.492356 47.5849
37.0769 0.492356 47.5849
-123.136 1.63783 114.204
-121.81 1.62621 113.394
-123.103 1.64961 115.025
-122.644 1.64961 115.025
-121.312 1.63783 114.204
-120.855 1.63783 114.204
-120.399 1.63783 114.204
-119.092 1.62621 113.394
-119.487 1.63783 114.204
-119.031 1.63783 114.204
-118.575 1.63783 114.204
-118.118 1.63783 114.204
-117.662 1.63783 114.204
-116.375 1.62621 113.394
-115.922 1.62621 113.394
-116.294 1.63783 114.204
-116.671 1.64961 115.025
-116.211 1.64961 115.025
-116.591 1.66157 115.859
-116.128 1.66157 115.859
-115.665 1.66157 115.859
-116.043 1.67369 116.705
-114.74 1.66157 115.859
-113.455 1.64961 115.025
-113.814 1.66157 115.859
-114.179 1.67369 116.705
-115.397 1.69849 118.434
-117.536 1.73709 121.125
-120.71 1.79138 124.91
-120.211 1.79138 124.91
-119.712 1.79138 124.91
-120.152 1.80548 125.894
-116.888 1.76382 122.989
-120.092 1.81981 126.893
-118.643 1.80548 125.894
-118.14 1.80548 125.894
-118.571 1.81981 126.893
-274.301 4.24622 296.084
-278.271 4.32634 301.671
-293.69 4.58592 319.771
-317.84 4.9847 347.577
-355.044 5.59259 389.964
-362.323 5.7324 399.714
-327.933 5.21128 363.376
-368.338 5.87939 409.963
-365.063 5.87939 409.963
-238.066 3.88637 270.992
-235.901 3.88637 270.992
-230.905 3.8216 266.476
-229.84 3.8216 266.476
-225.025 3.75895 262.107
-216.868 3.63962 253.786
-185.324 3.18467 222.063
-184.437 3.18467 222.063
-186.136 3.22952 225.191
-177.727 3.0986 216.061
-184.337 3.22952 225.191
-173.654 3.05728 213.181
-172.802 3.05728 213.181
-167.485 2.97787 207.643
-166.655 2.97787 207.643
-157.637 2.83082 197.389
-156.848 2.83082 197.389
-158.011 2.8662 199.857
-159.202 2.90248 202.387
-158.394 2.90248 202.387
-157.586 2.90248 202.387
-156.777 2.90248 202.387
-154.019 2.8662 199.857
-153.221 2.8662 199.857
-154.352 2.90248 202.387
-151.624 2.8662 199.857
-150.826 2.8662 199.857
-150.028 2.8662 199.857
-151.118 2.90248 202.387
-146.599 2.83082 197.389
-145.81 2.83082 197.389
-145.022 2.83082 197.389
-144.233 2.83082 197.389
-145.238 2.8662 199.857
-144.44 2.8662 199.857
-136.801 2.72972 190.34
-129.131 2.60564 181.688
-125.552 2.54773 177.65
-122.129 2.49235 173.788
-118.851 2.43932 170.091
-116.927 2.41364 168.3
-113.858 2.36388 164.83
-113.2 2.36388 164.83
-112.541 2.36388 164.83
-109.623 2.31612 161.5
-108.978 2.31612 161.5
-107.249 2.29296 159.885
-105.555 2.27026 158.302
-104.923 2.27026 158.302
-104.29 2.27026 158.302
-104.695 2.29296 159.885
-104.056 2.29296 159.885
-103.417 2.29296 159.885
-102.779 2.29296 159.885
-101.129 2.27026 158.302
-99.5112 2.248 156.75
-98.8851 2.248 156.75
-96.3694 2.20477 153.736
-96.685 2.22618 155.229
-94.2351 2.18377 152.272
-93.6269 2.18377 152.272
-92.1411 2.16317 150.835
-93.299 2.20477 153.736
-91.8022 2.18377 152.272
-91.194 2.18377 152.272
-101.426 2.54773 177.65
-103.005 2.60564 181.688
-101.13 2.57636 179.647
-107.671 2.7626 192.633
-105.629 2.72972 190.34
-106.132 2.7626 192.633
-104.109 2.72972 190.34
-100.945 2.66623 185.913
-97.925 2.60564 181.688
-98.3165 2.63559 183.776
-94.672 2.57636 179.647
-81.9798 2.248 156.75
-75.5433 2.10363 146.684
-75.6514 2.12311 148.042
-75.7616 2.14295 149.426
-74.4687 2.12311 148.042
-73.1996 2.10363 146.684
-73.2861 2.12311 148.042
-70.73 2.06573 144.041
-69.5283 2.04729 142.755
-68.3478 2.02917 141.492
-67.188 2.01137 140.25
-66.6278 2.01137 140.25
-66.0676 2.01137 140.25
-64.9378 1.99388 139.031
-64.3824 1.99388 139.031
-63.8271 1.99388 139.031
-63.2717 1.99388 139.031
-62.1757 1.97669 137.832
-62.1611 1.99388 139.031
-62.1461 2.01137 140.25
-61.5859 2.01137 140.25
-61.5657 2.02917 141.492
-62.6642 2.08451 145.35
-60.975 2.04729 142.755
-60.4048 2.04729 142.755
-59.8346 2.04729 142.755
-59.7983 2.06573 144.041
-59.2229 2.06573 144.041
-59.7237 2.10363 146.684
-59.1377 2.10363 146.684
-58.0195 2.08451 145.35
-58.5026 2.12311 148.042
-57.9113 2.12311 148.042
-57.32 2.12311 148.042
-57.2588 2.14295 149.426
-57.1965 2.16317 150.835
-152.182 5.87939 409.963
-146.781 5.7324 399.714
-138.271 5.45943 380.68
-143.588 5.7324 399.714
-138.528 5.59259 389.964
-122.082 4.9847 347.577
-113.304 4.67951 326.297
-114.334 4.777 333.095
-110.698 4.67951 326.297
-109.394 4.67951 326.297
-108.091 4.67951 326.297
-104.652 4.58592 319.771
-103.375 4.58592 319.771
-98.1704 4.40954 307.472
-96.9423 4.40954 307.472
-93.9082 4.32634 301.671
-90.9865 4.24622 296.084
-88.171 4.16902 290.701
-88.6211 4.24622 296.084
-83.1752 4.09457 285.51
-82.0348 4.09457 285.51
-79.4752 4.02274 280.501
-78.3547 4.02274 280.501
-78.6135 4.09457 285.51
-77.4731 4.09457 285.51
-76.3326 4.09457 285.51
-75.1922 4.09457 285.51
-74.0518 4.09457 285.51
-71.6322 4.02274 280.501
-68.1215 3.88637 270.992
-68.1949 3.95338 275.665
-69.49 4.09457 285.51
-22.2041 1.45124 101.193
-21.7999 1.45124 101.193
-20.8674 1.41541 98.6947
-20.6004 1.4242 99.3077
-19.9558 1.40672 98.0892
-19.564 1.40672 98.0892
-19.0553 1.39815 97.4911
-18.5528 1.38967 96.9003
-18.2765 1.39815 97.4911
-17.9968 1.40672 98.0892
-17.605 1.40672 98.0892
-17.2132 1.40672 98.0892
-16.8214 1.40672 98.0892
-16.2304 1.38967 96.9003
-15.6536 1.37303 95.7398
-15.2712 1.37303 95.7398
-14.8888 1.37303 95.7398
-14.3347 1.35678 94.6068
-13.9568 1.35678 94.6068
-13.5789 1.35678 94.6068
-13.201 1.35678 94.6068
-12.7477 1.3488 94.0502
-12.372 1.3488 94.0502
-11.9262 1.34091 93.5002
-11.4855 1.33312 92.9566
-11.05 1.32541 92.4193
-10.7429 1.33312 92.9566
-10.3716 1.33312 92.9566
-9.9425 1.32541 92.4193
-9.57335 1.32541 92.4193
-9.20419 1.32541 92.4193
-8.78426 1.31779 91.8882
-8.41722 1.31779 91.8882
-8.05018 1.31779 91.8882
-7.68315 1.31779 91.8882
-7.31611 1.31779 91.8882
-6.90936 1.31026 91.3631
-6.54443 1.31026 91.3631
-6.10966 1.29546 90.3307
-5.74885 1.29546 90.3307
-5.35776 1.28818 89.8233
-4.99897 1.28818 89.8233
-4.64018 1.28818 89.8233
-4.25748 1.28098 89.3215
-3.90069 1.28098 89.3215
-3.52422 1.27387 88.8252
-3.18712 1.28098 89.3215
-2.81462 1.27387 88.8252
-2.45982 1.27387 88.8252
-2.09338 1.26683 88.3345
-1.73098 1.25987 87.8491
-1.37253 1.25298 87.3691
-0.66727 1.23944 86.4246
-0.320326 1.23277 85.9599
0.0229071 1.22618 85.5002
0.362489 1.21966 85.0454
0.694802 1.20682 84.1502
1.03093 1.20682 84.1502
1.36706 1.20682 84.1502
1.70319 1.20682 84.1502
2.03931 1.20682 84.1502
2.363 1.2005 83.7096
2.72592 1.21321 84.5955
3.0477 1.20682 84.1502
3.38383 1.20682 84.1502
3.70048 1.2005 83.7096
4.01383 1.19425 83.2737
4.34646 1.19425 83.2737
4.67908 1.19425 83.2737
5.01171 1.19425 83.2737
5.40059 1.20682 84.1502
11.7739 2.33976 163.148
12.5537 2.36388 164.83
13.2121 2.36388 164.83
13.8705 2.36388 164.83
14.3806 2.33976 163.148
15.0323 2.33976 163.148
15.5255 2.31612 161.5
15.695 2.248 156.75
16.3211 2.248 156.75
16.6214 2.20477 153.736
17.0713 2.18377 152.272
17.5127 2.16317 150.835
17.9459 2.14295 149.426
18.7177 2.16317 150.835
18.7885 2.10363 146.684
19.0253 2.06573 144.041
19.0848 2.01137 140.25
19.9959 2.04729 142.755
20.7513 2.06573 144.041
21.3267 2.06573 144.041
21.9021 2.06573 144.041
22.6818 2.08451 145.35
22.8469 2.04729 142.755
23.6281 2.06573 144.041
23.9874 2.04729 142.755
24.3403 2.02917 141.492
24.687 2.01137 140.25
25.0276 1.99388 139.031
24.9326 1.94319 135.496
25.2597 1.92686 134.357
25.5814 1.9108 133.238
26.1136 1.9108 133.238
26.4256 1.89501 132.137
26.9534 1.89501 132.137
27.256 1.87948 131.054
27.7795 1.87948 131.054
28.3029 1.87948 131.054
28.8264 1.87948 131.054
29.3499 1.87948 131.054
29.8734 1.87948 131.054
30.1497 1.8642 129.988
30.6689 1.8642 129.988
31.1882 1.8642 129.988
31.7074 1.8642 129.988
31.9667 1.84916 128.94
31.9662 1.81981 126.893
32.473 1.81981 126.893
32.9799 1.81981 126.893
34.0269 1.84916 128.94
34.5419 1.84916 128.94
34.7765 1.83437 127.908
35.2874 1.83437 127.908
35.7983 1.83437 127.908
36.021 1.81981 126.893
36.8201 1.83437 127.908
37.0348 1.81981 126.893
36.955 1.79138 124.91
36.5962 1.75035 122.05
36.8028 1.73709 121.125
36.7301 1.71117 119.317
37.2067 1.71117 119.317
37.1292 1.686 117.563
37.3243 1.67369 116.705
38.0683 1.686 117.563
38.5379 1.686 117.563
39.0075 1.686 117.563
39.189 1.67369 116.705
39.3678 1.66157 115.859
75.1416 3.0986 216.061
77.0458 3.14104 219.021
77.9207 3.14104 219.021
81.0151 3.22952 225.191
80.7769 3.18467 222.063
90.4585 3.52763 245.978
90.0556 3.47418 242.251
92.4236 3.52763 245.978
96.3714 3.63962 253.786
88.9168 3.32313 231.718
85.7944 3.14104 219.021
93.042 3.372 235.126
93.9811 3.372 235.126
90.9096 3.22952 225.191
88.9501 3.0986 216.061
89.8132 3.0986 216.061
88.29 3.01705 210.376
86.8449 2.93969 204.981
24.4313 0.6744 47.0251
24.4752 0.670456 46.7501
24.7342 0.672423 46.8872
24.9215 0.672423 46.8872
25.7895 0.690651 48.1583
26.2987 0.699073 48.7456
26.607 0.696949 48.5974
26.6392 0.692738 48.3038
27.025 0.692738 48.3038
27.0545 0.688577 48.0136
27.3284 0.690651 48.1583
34.5242 0.804548 56.1001
34.8706 0.807381 56.2977
34.9724 0.804548 56.1001
35.1964 0.804548 56.1001
35.4205 0.804548 56.1001
35.52 0.801735 55.904
35.8687 0.804548 56.1001
35.8413 0.798941 55.7092
35.8142 0.793412 55.3237
36.2863 0.798941 55.7092
36.5088 0.798941 55.7092
36.7314 0.798941 55.7092
36.9539 0.798941 55.7092
37.5297 0.801735 55.904
34.2122 0.678391 47.3034
34.2997 0.67639 47.1638
34.3866 0.6744 47.0251
35.5146 0.692738 48.3038
35.493 0.688577 48.0136
35.4718 0.684466 47.727
35.3459 0.678391 47.3034
35.5348 0.678391 47.3034
35.8298 0.680404 47.4437
36.1265 0.682429 47.5849
36.2088 0.680404 47.4437
36.9465 0.690651 48.1583
36.4796 0.678391 47.3034
36.7773 0.680404 47.4437
36.9669 0.680404 47.4437
-120.952 2.06451 112.595
-122.224 2.094 114.204
-122.644 2.10907 115.025
-121.312 2.094 114.204
-119.998 2.07915 113.394
-119.545 2.07915 113.394
-118.254 2.06451 112.595
-118.64 2.07915 113.394
-118.187 2.07915 113.394
-117.734 2.07915 113.394
-117.281 2.07915 113.394
-116.828 2.07915 113.394
-116.375 2.07915 113.394
-115.922 2.07915 113.394
-116.294 2.094 114.204
-115.838 2.094 114.204
-116.211 2.10907 115.025
-116.591 2.12435 115.859
-116.128 2.12435 115.859
-115.665 2.12435 115.859
-115.202 2.12435 115.859
-114.74 2.12435 115.859
-113.455 2.10907 115.025
-112.995 2.10907 115.025
-113.351 2.12435 115.859
-114.549 2.15559 117.563
-116.652 2.20421 120.215
-119.774 2.27256 123.942
-119.279 2.27256 123.942
-118.784 2.27256 123.942
-118.289 2.27256 123.942
-115.996 2.23787 122.05
-119.146 2.30835 125.894
-116.804 2.27256 123.942
-117.217 2.29032 124.91
-117.638 2.30835 125.894
-117.135 2.30835 125.894
-290.436 5.74824 313.501
-300.987 5.98287 326.297
-326.323 6.51468 355.301
-348.111 6.98001 380.68
-373.251 7.51693 409.963
-371.613 7.51693 409.963
-369.976 7.51693 409.963
-378.031 7.71475 420.751
-366.701 7.51693 409.963
-374.67 7.71475 420.751
-372.989 7.71475 420.751
-371.309 7.71475 420.751
-369.628 7.71475 420.751
-377.892 7.92326 432.123
-361.225 7.71475 420.751
-379.519 8.14335 444.126
-388.538 8.37601 456.815
-386.713 8.37601 456.815
-384.888 8.37601 456.815
-372.423 8.14335 444.126
-191.531 4.2487 231.718
-185.236 4.12902 225.191
-192.469 4.31118 235.126
-180.889 4.07167 222.063
-182.538 4.12902 225.191
-171.099 3.90881 213.181
-163.7 3.75847 204.981
-160.819 3.71089 202.387
-164.167 3.80728 207.643
-161.243 3.75847 204.981
-160.425 3.75847 204.981
-161.679 3.80728 207.643
-160.849 3.80728 207.643
-157.968 3.75847 204.981
-159.191 3.80728 207.643
-158.361 3.80728 207.643
-155.512 3.75847 204.981
-154.693 3.75847 204.981
-155.873 3.80728 207.643
-155.043 3.80728 207.643
-150.31 3.71089 202.387
-149.501 3.71089 202.387
-148.693 3.71089 202.387
-149.781 3.75847 204.981
-148.962 3.75847 204.981
-148.143 3.75847 204.981
-140.138 3.57513 194.982
-137.68 3.53205 192.633
-132.135 3.40884 185.913
-123.471 3.22154 175.698
-121.435 3.18653 173.788
-119.442 3.15226 171.92
-116.255 3.0859 168.3
-115.583 3.0859 168.3
-114.911 3.0859 168.3
-111.883 3.02227 164.83
-110.09 2.99143 163.148
-108.333 2.96122 161.5
-107.687 2.96122 161.5
-107.042 2.96122 161.5
-106.397 2.96122 161.5
-106.831 2.99143 163.148
-106.18 2.99143 163.148
-105.528 2.99143 163.148
-103.817 2.96122 161.5
-102.14 2.9316 159.885
-100.496 2.90258 158.302
-98.8851 2.87412 156.75
-97.305 2.84622 155.229
-96.685 2.84622 155.229
-94.2351 2.792 152.272
-93.6269 2.792 152.272
-93.0187 2.792 152.272
-95.1284 2.87412 156.75
-92.6849 2.81885 153.736
-92.0708 2.81885 153.736
-100.311 3.22154 175.698
-101.848 3.29394 179.647
-100.007 3.25734 177.65
-105.138 3.44895 188.1
-104.387 3.44895 188.1
-104.869 3.49001 190.34
-102.884 3.44895 188.1
-99.7847 3.36966 183.776
-97.925 3.33137 181.688
-97.1993 3.33137 181.688
-96.4736 3.33137 181.688
-94.672 3.29394 179.647
-83.6194 2.9316 159.885
-76.9553 2.73982 149.426
-76.3584 2.73982 149.426
-75.7616 2.73982 149.426
-75.1647 2.73982 149.426
-73.1996 2.68955 146.684
-73.2861 2.71445 148.042
-70.0985 2.6175 142.755
-69.5283 2.6175 142.755
-67.7483 2.57158 140.25
-66.6038 2.54922 139.031
-66.0485 2.54922 139.031
-65.4931 2.54922 139.031
-64.378 2.52725 137.832
-63.8274 2.52725 137.832
-63.2769 2.52725 137.832
-62.7263 2.52725 137.832
-61.6443 2.50564 136.654
-61.6252 2.52725 137.832
-62.1461 2.57158 140.25
-61.5859 2.57158 140.25
-61.5657 2.59434 141.492
-62.0997 2.64109 144.041
-60.975 2.6175 142.755
-60.4048 2.6175 142.755
-59.3051 2.59434 141.492
-59.2644 2.6175 142.755
-59.2229 2.64109 144.041
-59.1807 2.66509 145.35
-58.6001 2.66509 145.35
-57.4968 2.64109 144.041
-57.9659 2.68955 146.684
-57.38 2.68955 146.684
-56.7941 2.68955 146.684
-56.7286 2.71445 148.042
-56.6619 2.73982 149.426
-57.133 2.792 152.272
-146.781 7.32901 399.714
-141.643 7.15025 389.964
-147.269 7.51693 409.963
-141.991 7.32901 399.714
-124.795 6.51468 355.301
-115.665 6.10751 333.095
-116.767 6.23746 340.182
-113.004 6.10751 333.095
-111.673 6.10751 333.095
-108.091 5.98287 326.297
-104.652 5.86321 319.771
-103.375 5.86321 319.771
-98.1704 5.6377 307.472
-96.9423 5.6377 307.472
-93.9082 5.53133 301.671
-90.9865 5.4289 296.084
-88.171 5.33019 290.701
-88.6211 5.4289 296.084
-83.1752 5.23501 285.51
-82.0348 5.23501 285.51
-79.4752 5.14317 280.501
-78.3547 5.14317 280.501
-77.2343 5.14317 280.501
-76.1139 5.14317 280.501
-76.3326 5.23501 285.51
-73.873 5.14317 280.501
-72.7526 5.14317 280.501
-70.3971 5.05449 275.665
-65.888 4.80591 262.107
-64.8411 4.80591 262.107
-67.0938 5.05449 275.665
-21.7999 1.85545 101.193
-20.8674 1.80963 98.6947
-20.6004 1.82087 99.3077
-19.9558 1.79853 98.0892
-19.564 1.79853 98.0892
-19.0553 1.78756 97.4911
-18.6659 1.78756 97.4911
-18.2765 1.78756 97.4911
-17.9968 1.79853 98.0892
-17.7136 1.80963 98.6947
-17.427 1.82087 99.3077
-16.9252 1.80963 98.6947
-16.3294 1.78756 97.4911
-15.6536 1.75545 95.7398
-15.2712 1.75545 95.7398
-14.3347 1.73468 94.6068
-13.9568 1.73468 94.6068
-13.5789 1.73468 94.6068
-13.201 1.73468 94.6068
-12.7477 1.72447 94.0502
-12.372 1.72447 94.0502
-11.9262 1.71439 93.5002
-11.4855 1.70442 92.9566
-11.05 1.69457 92.4193
-10.7429 1.70442 92.9566
-10.3117 1.69457 92.4193
-9.9425 1.69457 92.4193
-9.57335 1.69457 92.4193
-9.20419 1.69457 92.4193
-8.78426 1.68483 91.8882
-8.41722 1.68483 91.8882
-8.05018 1.68483 91.8882
-7.68315 1.68483 91.8882
-7.31611 1.68483 91.8882
-6.90936 1.6752 91.3631
-6.54443 1.6752 91.3631
-6.14438 1.66568 90.844
-5.74885 1.65627 90.3307
-5.35776 1.64697 89.8233
-4.99897 1.64697 89.8233
-4.64018 1.64697 89.8233
-4.25748 1.63777 89.3215
-3.90069 1.63777 89.3215
-3.52422 1.62867 88.8252
-3.18712 1.63777 89.3215
-2.81462 1.62867 88.8252
-2.45982 1.62867 88.8252
-2.09338 1.61967 88.3345
-1.36507 1.59326 86.8942
-1.01799 1.59326 86.8942
-0.66727 1.58465 86.4246
-0.318613 1.5677 85.5002
0.0229071 1.5677 85.5002
0.360571 1.55111 84.5955
0.691164 1.53487 83.7096
1.02553 1.53487 83.7096
1.3599 1.53487 83.7096
1.69427 1.53487 83.7096
2.02864 1.53487 83.7096
2.363 1.53487 83.7096
2.71157 1.54295 84.1502
3.0477 1.54295 84.1502
3.36611 1.53487 83.7096
3.6812 1.52688 83.2737
3.99303 1.51897 82.8422
4.32394 1.51897 82.8422
4.65484 1.51897 82.8422
4.98574 1.51897 82.8422
5.37232 1.53487 83.7096
11.8953 3.02227 164.83
12.5537 3.02227 164.83
13.2121 3.02227 164.83
13.8705 3.02227 164.83
14.3806 2.99143 163.148
15.0323 2.99143 163.148
15.5255 2.96122 161.5
15.695 2.87412 156.75
16.3211 2.87412 156.75
16.6214 2.81885 153.736
17.0713 2.792 152.272
17.5127 2.76566 150.835
17.9459 2.73982 149.426
18.5428 2.73982 149.426
18.6177 2.66509 145.35
18.8554 2.6175 142.755
18.9189 2.54922 139.031
19.8189 2.59434 141.492
20.5661 2.6175 142.755
21.1363 2.6175 142.755
21.7065 2.6175 142.755
22.4774 2.64109 144.041
22.8469 2.6175 142.755
23.6281 2.64109 144.041
23.9874 2.6175 142.755
24.3403 2.59434 141.492
24.687 2.57158 140.25
25.2472 2.57158 140.25
24.9326 2.48441 135.496
25.2597 2.46353 134.357
25.5814 2.443 133.238
26.1136 2.443 133.238
26.4256 2.42281 132.137
26.9534 2.42281 132.137
27.256 2.40295 131.054
27.5536 2.38342 129.988
28.3029 2.40295 131.054
28.8264 2.40295 131.054
29.3499 2.40295 131.054
29.8734 2.40295 131.054
30.1497 2.38342 129.988
30.6689 2.38342 129.988
31.1882 2.38342 129.988
31.7074 2.38342 129.988
31.9667 2.3642 128.94
32.2219 2.34528 127.908
32.7328 2.34528 127.908
32.9799 2.32667 126.893
34.0269 2.3642 128.94
34.5419 2.3642 128.94
35.0569 2.3642 128.94
35.2874 2.34528 127.908
36.087 2.3642 128.94
36.3092 2.34528 127.908
37.1171 2.3642 128.94
37.331 2.34528 127.908
37.246 2.30835 125.894
36.5962 2.23787 122.05
36.5261 2.20421 120.215
36.7301 2.18776 119.317
37.2067 2.18776 119.317
37.1292 2.15559 117.563
37.3243 2.13986 116.705
37.7905 2.13986 116.705
38.2566 2.13986 116.705
38.7228 2.13986 116.705
38.905 2.12435 115.859
38.8054 2.094 114.204
71.3846 3.80728 207.643
75.1416 3.96163 216.061
77.0458 4.0159 219.021
77.9207 4.0159 219.021
83.3634 4.2487 231.718
83.0848 4.18801 228.408
97.9967 4.88601 266.476
94.3439 4.65334 253.786
98.4841 4.80591 262.107
97.9257 4.72839 257.88
88.9168 4.2487 231.718
85.7944 4.0159 219.021
93.042 4.31118 235.126
96.829 4.44182 242.251
90.9096 4.12902 225.191
90.1686 4.0159 219.021
89.8132 3.96163 216.061
88.29 3.85737 210.376
85.7456 3.71089 202.387
24.2884 0.857194 46.7501
24.4038 0.854695 46.6138
24.6619 0.857194 46.7501
24.7762 0.854695 46.6138
25.5585 0.875106 47.727
26.2188 0.891065 48.5974
26.5264 0.888365 48.4501
26.6392 0.885681 48.3038
27.025 0.885681 48.3038
27.0545 0.880362 48.0136
27.2463 0.880362 48.0136
34.4035 1.02504 55.904
34.7483 1.02863 56.1001
34.8501 1.02504 55.904
35.0734 1.02504 55.904
35.2967 1.02504 55.904
35.52 1.02504 55.904
35.7433 1.02504 55.904
35.7168 1.01792 55.5158
35.6907 1.0109 55.1329
36.1603 1.01792 55.5158
36.3821 1.01792 55.5158
36.7314 1.02146 55.7092
36.8256 1.01792 55.5158
37.5297 1.02504 55.904
34.3137 0.869912 47.4437
34.2997 0.86478 47.1638
34.4881 0.86478 47.1638
35.5146 0.885681 48.3038
35.3868 0.877726 47.8699
35.4718 0.875106 47.727
35.4508 0.869912 47.4437
35.6403 0.869912 47.4437
35.9364 0.872501 47.5849
36.1265 0.872501 47.5849
36.3166 0.872501 47.5849
37.0581 0.885681 48.3038
36.372 0.86478 47.1638
36.6685 0.867339 47.3034
36.9669 0.869912 47.4437
-122.644 2.56852 115.025
-120.451 2.53209 113.394
-119.153 2.51426 112.595
-118.704 2.51426 112.595
-117.427 2.49668 111.808
-118.64 2.53209 113.394
-118.187 2.53209 113.394
-117.734 2.53209 113.394
-116.455 2.51426 112.595
-116.005 2.51426 112.595
-116.375 2.53209 113.394
-116.75 2.55018 114.204
-117.13 2.56852 115.025
-116.671 2.56852 115.025
-116.211 2.56852 115.025
-115.752 2.56852 115.025
-116.128 2.58714 115.859
-115.665 2.58714 115.859
-115.202 2.58714 115.859
-113.914 2.56852 115.025
-113.455 2.56852 115.025
-112.995 2.56852 115.025
-113.351 2.58714 115.859
-114.549 2.62518 117.563
-116.652 2.6844 120.215
-118.853 2.74634 122.989
-117.458 2.72538 122.05
-117.87 2.74634 122.989
-118.289 2.76763 123.942
-115.117 2.70473 121.125
-118.215 2.78926 124.91
-115.905 2.74634 122.989
-115.414 2.74634 122.989
-114.923 2.74634 122.989
-115.319 2.76763 123.942
-313.795 7.59627 340.182
-341.5 8.3029 371.827
-365.516 8.92562 399.714
-373.251 9.15448 409.963
-381.393 9.39539 420.751
-379.712 9.39539 420.751
-388.248 9.64932 432.123
-376.351 9.39539 420.751
-384.796 9.64932 432.123
-372.989 9.39539 420.751
-371.309 9.39539 420.751
-369.628 9.39539 420.751
-377.892 9.64932 432.123
-356.875 9.15448 409.963
-355.238 9.15448 409.963
-362.906 9.39539 420.751
-370.988 9.64932 432.123
-379.519 9.91735 444.126
-388.538 10.2007 456.815
-375.971 9.91735 444.126
-384.888 10.2007 456.815
-372.423 9.91735 444.126
-370.649 9.91735 444.126
-358.905 9.64932 432.123
-201.352 5.49269 245.978
-192.482 5.32873 238.635
-180.739 5.02852 225.191
-177.341 4.95868 222.063
-167.167 4.69769 210.376
-168.545 4.76033 213.181
-163.338 4.63669 207.643
-162.508 4.63669 207.643
-163.806 4.69769 210.376
-165.139 4.76033 213.181
-160.02 4.63669 207.643
-161.285 4.69769 210.376
-160.445 4.69769 210.376
-157.532 4.63669 207.643
-158.764 4.69769 210.376
-157.924 4.69769 210.376
-157.084 4.69769 210.376
-152.237 4.57724 204.981
-149.501 4.5193 202.387
-150.599 4.57724 204.981
-151.726 4.63669 207.643
-152.882 4.69769 210.376
-152.042 4.69769 210.376
-140.138 4.35396 194.982
-139.359 4.35396 194.982
-132.135 4.15145 185.913
-123.471 3.92335 175.698
-121.435 3.8807 173.788
-119.442 3.83898 171.92
-117.492 3.79814 170.091
-116.813 3.79814 170.091
-114.911 3.75816 168.3
-111.883 3.68067 164.83
-112.383 3.71901 166.547
-110.566 3.68067 164.83
-111.053 3.71901 166.547
-109.249 3.68067 164.83
-107.483 3.64311 163.148
-109.057 3.71901 166.547
-108.392 3.71901 166.547
-107.726 3.71901 166.547
-104.876 3.64311 163.148
-102.14 3.57025 159.885
-101.501 3.57025 159.885
-99.8642 3.5349 158.302
-97.305 3.46626 155.229
-96.685 3.46626 155.229
-95.1412 3.43293 153.736
-94.5272 3.43293 153.736
-93.0187 3.40024 152.272
-95.1284 3.50024 156.75
-92.6849 3.43293 153.736
-92.0708 3.43293 153.736
-98.1539 3.83898 171.92
-99.6094 3.92335 175.698
-97.8325 3.8807 173.788
-105.138 4.20029 188.1
-104.387 4.20029 188.1
-104.869 4.2503 190.34
-102.884 4.20029 188.1
-99.7847 4.10373 183.776
-97.925 4.0571 181.688
-97.1993 4.0571 181.688
-96.4736 4.0571 181.688
-95.7478 4.0571 181.688
-81.9798 3.50024 156.75
-75.5433 3.27546 146.684
-74.9574 3.27546 146.684
-75.0601 3.30578 148.042
-73.7855 3.27546 146.684
-72.5342 3.24568 145.35
-71.9536 3.24568 145.35
-69.4781 3.15951 141.492
-68.3085 3.1318 140.25
-67.1591 3.10456 139.031
-66.0296 3.0778 137.832
-64.9194 3.05149 136.654
-64.9285 3.0778 137.832
-63.8277 3.05149 136.654
-63.8274 3.0778 137.832
-63.2769 3.0778 137.832
-62.1902 3.05149 136.654
-61.6443 3.05149 136.654
-61.6252 3.0778 137.832
-61.6057 3.10456 139.031
-61.0504 3.10456 139.031
-61.5657 3.15951 141.492
-62.0997 3.21644 144.041
-61.5243 3.21644 144.041
-60.4048 3.18772 142.755
-59.3051 3.15951 141.492
-59.7983 3.21644 144.041
-59.2229 3.21644 144.041
-59.7237 3.27546 146.684
-59.1377 3.27546 146.684
-58.0195 3.24568 145.35
-58.5026 3.30578 148.042
-57.9113 3.30578 148.042
-57.32 3.30578 148.042
-57.2588 3.33668 149.426
-57.1965 3.36816 150.835
-57.133 3.40024 152.272
-55.9915 3.36816 150.835
-138.271 8.50059 380.68
-143.588 8.92562 399.714
-138.528 8.70792 389.964
-122.082 7.76141 347.577
-113.304 7.28622 326.297
-112.001 7.28622 326.297
-110.698 7.28622 326.297
-111.673 7.43802 333.095
-108.091 7.28622 326.297
-104.652 7.1405 319.771
-101.348 7.00049 313.501
-98.1704 6.86586 307.472
-96.9423 6.86586 307.472
-92.1692 6.61157 296.084
-90.9865 6.61157 296.084
-88.171 6.49136 290.701
-88.6211 6.61157 296.084
-83.1752 6.37544 285.51
-82.0348 6.37544 285.51
-79.4752 6.26359 280.501
-78.3547 6.26359 280.501
-77.2343 6.26359 280.501
-76.1139 6.26359 280.501
-76.3326 6.37544 285.51
-72.5993 6.1556 275.665
-71.4982 6.1556 275.665
-68.0506 5.95041 266.476
-62.7995 5.57851 249.821
-59.9289 5.40947 242.251
-63.7941 5.85287 262.107
-21.7999 2.25965 101.193
-20.8674 2.20386 98.6947
-20.6004 2.21755 99.3077
-19.9558 2.19034 98.0892
-19.564 2.19034 98.0892
-18.9398 2.16379 96.9003
-18.5528 2.16379 96.9003
-18.2765 2.17698 97.4911
-18.1079 2.20386 98.6947
-17.7136 2.20386 98.6947
-17.427 2.21755 99.3077
-16.9252 2.20386 98.6947
-16.2304 2.16379 96.9003
-15.6536 2.13787 95.7398
-15.2712 2.13787 95.7398
-14.3347 2.11257 94.6068
-13.9568 2.11257 94.6068
-13.5789 2.11257 94.6068
-13.201 2.11257 94.6068
-12.7477 2.10015 94.0502
-12.372 2.10015 94.0502
-11.9262 2.08786 93.5002
-11.4855 2.07573 92.9566
-11.05 2.06373 92.4193
-10.7429 2.07573 92.9566
-10.3716 2.07573 92.9566
-9.9425 2.06373 92.4193
-9.57335 2.06373 92.4193
-9.20419 2.06373 92.4193
-8.78426 2.05187 91.8882
-8.41722 2.05187 91.8882
-8.05018 2.05187 91.8882
-7.68315 2.05187 91.8882
-7.2743 2.04014 91.3631
-6.87011 2.02855 90.844
-6.50724 2.02855 90.844
-6.10966 2.01709 90.3307
-5.74885 2.01709 90.3307
-5.35776 2.00576 89.8233
-4.97105 1.99455 89.3215
-4.64018 2.00576 89.8233
-4.25748 1.99455 89.3215
-3.90069 1.99455 89.3215
-3.52422 1.98347 88.8252
-3.18712 1.99455 89.3215
-2.81462 1.98347 88.8252
-2.45982 1.98347 88.8252
-2.09338 1.97251 88.3345
-1.73098 1.96167 87.8491
-1.01248 1.92986 86.4246
-0.66727 1.92986 86.4246
-0.318613 1.90922 85.5002
0.0227852 1.89907 85.0454
0.360571 1.88902 84.5955
0.691164 1.86924 83.7096
1.02553 1.86924 83.7096
1.3599 1.86924 83.7096
1.68544 1.8595 83.2737
2.02864 1.86924 83.7096
2.3507 1.8595 83.2737
2.69737 1.86924 83.7096
3.03174 1.86924 83.7096
3.34858 1.8595 83.2737
3.66213 1.84987 82.8422
3.97245 1.84033 82.4152
4.30165 1.84033 82.4152
4.63085 1.84033 82.4152
4.96004 1.84033 82.4152
5.31665 1.84987 82.8422
11.4734 3.75816 168.3
12.0192 3.71901 166.547
12.6844 3.71901 166.547
13.2121 3.68067 164.83
14.0149 3.71901 166.547
14.5289 3.68067 164.83
15.0323 3.64311 163.148
15.5255 3.60631 161.5
15.695 3.50024 156.75
16.4631 3.40024 152.272
16.9102 3.36816 150.835
17.3491 3.33668 149.426
17.6166 3.27546 146.684
18.3711 3.30578 148.042
18.2852 3.18772 142.755
18.6886 3.15951 141.492
18.7558 3.0778 137.832
19.645 3.1318 140.25
20.2053 3.1318 140.25
20.9492 3.15951 141.492
21.5144 3.15951 141.492
22.0796 3.15951 141.492
22.4461 3.1318 140.25
23.4172 3.18772 142.755
23.7751 3.15951 141.492
24.1268 3.1318 140.25
24.4723 3.10456 139.031
25.0276 3.10456 139.031
24.9326 3.02563 135.496
25.2597 3.00021 134.357
25.8978 2.95062 132.137
26.4256 2.95062 132.137
26.7325 2.92643 131.054
27.0344 2.90264 129.988
27.5536 2.90264 129.988
28.3029 2.92643 131.054
28.8264 2.92643 131.054
29.1113 2.90264 129.988
29.6305 2.90264 129.988
30.1497 2.90264 129.988
30.6689 2.90264 129.988
31.1882 2.90264 129.988
31.4517 2.87923 128.94
31.711 2.8562 127.908
31.9662 2.83353 126.893
32.473 2.83353 126.893
32.9799 2.83353 126.893
34.0269 2.87923 128.94
34.5419 2.87923 128.94
35.0569 2.87923 128.94
35.572 2.87923 128.94
36.3804 2.90264 129.988
36.8996 2.90264 129.988
37.4188 2.90264 129.988
37.6321 2.87923 128.94
37.842 2.8562 127.908
36.8778 2.74634 122.989
36.8028 2.70473 121.125
36.7301 2.66436 119.317
37.1292 2.62518 117.563
37.0538 2.58714 115.859
37.7905 2.60602 116.705
38.2566 2.60602 116.705
38.7228 2.60602 116.705
38.905 2.58714 115.859
38.8054 2.55018 114.204
71.3846 4.63669 207.643
74.1397 4.76033 213.181
77.0458 4.89075 219.021
77.9207 4.89075 219.021
83.3634 5.17427 231.718
84.289 5.17427 231.718
101.376 6.1556 275.665
97.4372 5.85287 262.107
98.4841 5.85287 262.107
97.9257 5.75846 257.88
88.9168 5.17427 231.718
85.7944 4.89075 219.021
91.6935 5.17427 231.718
99.8549 5.57851 249.821
92.2083 5.10035 228.408
90.1686 4.89075 219.021
91.0435 4.89075 219.021
88.29 4.69769 210.376
85.7456 4.5193 202.387
24.2176 1.04089 46.6138
24.3329 1.03786 46.4783
24.59 1.04089 46.6138
24.6326 1.03485 46.3436
25.2569 1.05317 47.1638
26.1393 1.08189 48.4501
21.8887 0.899307 40.2734
26.3666 1.07538 48.1583
26.5589 1.07538 48.1583
27.1069 1.08189 48.4501
27.136 1.07538 48.1583
27.2463 1.07215 48.0136
27.5207 1.07538 48.1583
34.4035 1.24834 55.904
34.7483 1.25272 56.1001
34.8501 1.24834 55.904
35.0734 1.24834 55.904
35.4205 1.25272 56.1001
35.52 1.24834 55.904
35.7433 1.24834 55.904
35.7168 1.23967 55.5158
35.6907 1.23112 55.1329
36.1603 1.23967 55.5158
36.3821 1.23967 55.5158
36.7314 1.24399 55.7092
36.8256 1.23967 55.5158
37.0473 1.23967 55.5158
37.5297 1.24834 55.904
37.4908 1.23967 55.5158
34.2122 1.05629 47.3034
34.0985 1.04699 46.8872
34.3866 1.05007 47.0251
35.4076 1.07538 48.1583
35.2812 1.06575 47.727
35.4718 1.06575 47.727
35.4508 1.05942 47.4437
35.6403 1.05942 47.4437
35.9364 1.06257 47.5849
36.1265 1.06257 47.5849
36.2088 1.05942 47.4437
37.0581 1.07862 48.3038
36.265 1.05007 47.0251
36.5604 1.05317 47.1638
36.8575 1.05629 47.3034
-122.184 3.02798 115.025
-119.998 2.98503 113.394
-120.399 3.00635 114.204
-118.254 2.96401 112.595
-119.487 3.00635 114.204
-118.187 2.98503 113.394
-118.575 3.00635 114.204
-117.281 2.98503 113.394
-116.828 2.98503 113.394
-116.375 2.98503 113.394
-116.75 3.00635 114.204
-116.294 3.00635 114.204
-116.671 3.02798 115.025
-116.211 3.02798 115.025
-115.752 3.02798 115.025
-115.293 3.02798 115.025
-114.833 3.02798 115.025
-114.374 3.02798 115.025
-113.914 3.02798 115.025
-112.644 3.00635 114.204
-112.995 3.02798 115.025
-113.351 3.04992 115.859
-113.713 3.07218 116.705
-115.782 3.14096 119.317
-117.946 3.21289 122.05
-116.568 3.18855 121.125
-116.085 3.18855 121.125
-115.601 3.18855 121.125
-114.251 3.16458 120.215
-116.397 3.23761 122.989
-115.021 3.21289 122.05
-115.414 3.23761 122.989
-114.923 3.23761 122.989
-115.319 3.26271 123.942
-114.824 3.26271 123.942
-341.5 9.78812 371.827
-365.516 10.5222 399.714
-383.073 11.076 420.751
-391.701 11.3754 432.123
-379.712 11.076 420.751
-388.248 11.3754 432.123
-386.522 11.3754 432.123
-395.485 11.6914 444.126
-393.711 11.6914 444.126
-381.344 11.3754 432.123
-379.618 11.3754 432.123
-388.389 11.6914 444.126
-366.267 11.076 420.751
-364.586 11.076 420.751
-372.714 11.3754 432.123
-381.293 11.6914 444.126
-390.362 12.0254 456.815
-388.538 12.0254 456.815
-375.971 11.6914 444.126
-374.197 11.6914 444.126
-372.423 11.6914 444.126
-370.649 11.6914 444.126
-368.875 11.6914 444.126
-207.745 6.68078 253.786
-195.399 6.37711 242.251
-183.321 6.0127 228.408
-179.839 5.92802 225.191
-171.685 5.68769 216.061
-173.162 5.7656 219.021
-165.487 5.53801 210.376
-164.646 5.53801 210.376
-161.679 5.46609 207.643
-162.966 5.53801 210.376
-157.968 5.39601 204.981
-159.191 5.46609 207.643
-156.331 5.39601 204.981
-155.512 5.39601 204.981
-154.693 5.39601 204.981
-155.873 5.46609 207.643
-155.043 5.46609 207.643
-150.31 5.32771 202.387
-149.501 5.32771 202.387
-148.693 5.32771 202.387
-151.726 5.46609 207.643
-150.896 5.46609 207.643
-152.042 5.53801 210.376
-141.868 5.19616 197.389
-141.079 5.19616 197.389
-133.689 4.95164 188.1
-124.843 4.67655 177.65
-122.769 4.62515 175.698
-120.74 4.57488 173.788
-118.755 4.52569 171.92
-118.069 4.52569 171.92
-117.382 4.52569 171.92
-113.048 4.38426 166.547
-112.383 4.38426 166.547
-112.894 4.43041 168.3
-112.222 4.43041 168.3
-110.387 4.38426 166.547
-109.722 4.38426 166.547
-110.205 4.43041 168.3
-109.533 4.43041 168.3
-108.86 4.43041 168.3
-105.957 4.33906 164.83
-103.172 4.25141 161.5
-101.501 4.20889 159.885
-99.8642 4.16722 158.302
-97.305 4.0863 155.229
-97.6329 4.12636 156.75
-96.0649 4.0863 155.229
-95.4449 4.0863 155.229
-93.9131 4.04701 153.736
-96.0703 4.16722 158.302
-93.5848 4.0863 155.229
-92.9647 4.0863 155.229
-95.4153 4.43041 168.3
-91.8427 4.29479 163.148
-103.915 4.89406 185.913
-103.173 4.89406 185.913
-103.635 4.95164 188.1
-101.688 4.89406 185.913
-95.7489 4.67655 177.65
-95.0393 4.67655 177.65
-93.2931 4.62515 175.698
-79.6376 4.00847 152.272
-79.0293 4.00847 152.272
-75.5433 3.86137 146.684
-74.9574 3.86137 146.684
-74.3714 3.86137 146.684
-73.7855 3.86137 146.684
-72.5342 3.82626 145.35
-71.9536 3.82626 145.35
-69.4781 3.72468 141.492
-68.3085 3.69201 140.25
-67.1591 3.65991 139.031
-65.4653 3.59734 136.654
-64.9194 3.59734 136.654
-64.3736 3.59734 136.654
-63.8277 3.59734 136.654
-63.2819 3.59734 136.654
-62.736 3.59734 136.654
-62.1902 3.59734 136.654
-61.6443 3.59734 136.654
-61.6252 3.62835 137.832
-61.6057 3.65991 139.031
-60.5241 3.62835 137.832
-61.0257 3.69201 140.25
-61.5452 3.75794 142.755
-60.975 3.75794 142.755
-60.949 3.79179 144.041
-59.8346 3.75794 142.755
-59.7983 3.79179 144.041
-59.2229 3.79179 144.041
-59.7237 3.86137 146.684
-59.1377 3.86137 146.684
-58.5518 3.86137 146.684
-59.0494 3.93354 149.426
-58.4525 3.93354 149.426
-57.8557 3.93354 149.426
-57.799 3.97065 150.835
-57.1965 3.97065 150.835
-57.6823 4.04701 153.736
-56.5248 4.00847 152.272
-138.271 10.0212 380.68
-143.588 10.5222 399.714
-135.23 10.0212 380.68
-116.995 8.76852 333.095
-111.038 8.41778 319.771
-112.001 8.58957 326.297
-110.698 8.58957 326.297
-109.394 8.58957 326.297
-108.091 8.58957 326.297
-102.6 8.25273 313.501
-99.3986 8.09402 307.472
-96.3182 7.9413 301.671
-95.1132 7.9413 301.671
-90.4934 7.65253 290.701
-86.5965 7.51588 285.51
-87.0098 7.65253 290.701
-84.3157 7.51588 285.51
-83.1752 7.51588 285.51
-80.5956 7.38402 280.501
-79.4752 7.38402 280.501
-77.0038 7.25671 275.665
-77.2343 7.38402 280.501
-74.8016 7.25671 275.665
-74.9935 7.38402 280.501
-70.1794 7.01482 266.476
-65.8238 6.68078 253.786
-62.8159 6.47522 245.978
-59.9876 6.28193 238.635
-57.3233 6.09984 231.718
-61.7689 6.68078 253.786
-22.0794 2.69801 102.491
-20.8674 2.59808 98.6947
-20.7291 2.63056 99.9284
-19.9558 2.58214 98.0892
-19.564 2.58214 98.0892
-18.9398 2.55084 96.9003
-18.5528 2.55084 96.9003
-18.3886 2.58214 98.0892
-18.1079 2.59808 98.6947
-17.8237 2.61422 99.3077
-17.5359 2.63056 99.9284
-16.9252 2.59808 98.6947
-16.3294 2.5664 97.4911
-15.6536 2.52029 95.7398
-15.3632 2.53548 96.3165
-14.3347 2.49047 94.6068
-13.9568 2.49047 94.6068
-13.5789 2.49047 94.6068
-13.201 2.49047 94.6068
-12.7477 2.47582 94.0502
-12.4452 2.49047 94.6068
-11.9963 2.47582 94.0502
-11.4855 2.44703 92.9566
-11.05 2.43289 92.4193
-10.7429 2.44703 92.9566
-10.3716 2.44703 92.9566
-9.9425 2.43289 92.4193
-9.57335 2.43289 92.4193
-9.20419 2.43289 92.4193
-8.78426 2.4189 91.8882
-8.41722 2.4189 91.8882
-8.05018 2.4189 91.8882
-7.63924 2.40508 91.3631
-7.23297 2.39142 90.844
-6.83129 2.3779 90.3307
-6.47048 2.3779 90.3307
-6.07534 2.36455 89.8233
-5.71655 2.36455 89.8233
-5.32783 2.35134 89.3215
-4.97105 2.35134 89.3215
-4.61426 2.35134 89.3215
-4.23382 2.33827 88.8252
-3.87902 2.33827 88.8252
-3.52422 2.33827 88.8252
-3.16942 2.33827 88.8252
-2.81462 2.33827 88.8252
-2.44622 2.32535 88.3345
-2.08188 2.31258 87.8491
-1.36507 2.28744 86.8942
-1.01248 2.27508 86.4246
-0.663683 2.26284 85.9599
-0.318613 2.25074 85.5002
0.0227852 2.23877 85.0454
0.360571 2.22693 84.5955
0.691164 2.20361 83.7096
1.02553 2.20361 83.7096
1.3599 2.20361 83.7096
1.68544 2.19213 83.2737
2.01807 2.19213 83.2737
2.3507 2.19213 83.2737
2.69737 2.20361 83.7096
3.03174 2.20361 83.7096
3.34858 2.19213 83.2737
3.64325 2.16953 82.4152
3.97245 2.16953 82.4152
4.30165 2.16953 82.4152
4.6071 2.15841 81.9925
4.93461 2.15841 81.9925
5.28924 2.16953 82.4152
11.5955 4.47754 170.091
12.1457 4.43041 168.3
12.6844 4.38426 166.547
13.3497 4.38426 166.547
14.0149 4.38426 166.547
14.5289 4.33906 164.83
15.0323 4.29479 163.148
15.5255 4.25141 161.5
15.695 4.12636 156.75
16.4631 4.00847 152.272
16.9102 3.97065 150.835
17.3491 3.93354 149.426
17.6166 3.86137 146.684
18.2026 3.86137 146.684
18.2852 3.75794 142.755
18.5246 3.69201 140.25
18.7558 3.62835 137.832
19.4742 3.65991 139.031
20.2053 3.69201 140.25
20.7655 3.69201 140.25
21.3257 3.69201 140.25
21.8859 3.69201 140.25
22.4461 3.69201 140.25
23.2099 3.72468 141.492
23.5665 3.69201 140.25
24.1268 3.69201 140.25
24.4723 3.65991 139.031
25.0276 3.65991 139.031
24.7231 3.53688 134.357
25.2597 3.53688 134.357
25.37 3.47842 132.137
25.8978 3.47842 132.137
26.209 3.44991 131.054
26.7325 3.44991 131.054
27.0344 3.42186 129.988
27.5536 3.42186 129.988
28.0728 3.42186 129.988
28.592 3.42186 129.988
29.1113 3.42186 129.988
29.6305 3.42186 129.988
30.1497 3.42186 129.988
30.6689 3.42186 129.988
30.9366 3.39427 128.94
31.4517 3.39427 128.94
31.711 3.36711 127.908
31.9662 3.34039 126.893
32.473 3.34039 126.893
32.7202 3.31409 125.894
33.7546 3.36711 127.908
34.2656 3.36711 127.908
34.7765 3.36711 127.908
35.2874 3.36711 127.908
36.087 3.39427 128.94
36.602 3.39427 128.94
37.1171 3.39427 128.94
37.331 3.36711 127.908
37.5416 3.34039 126.893
36.5962 3.21289 122.05
36.5261 3.16458 120.215
36.7301 3.14096 119.317
36.8581 3.07218 116.705
37.0538 3.04992 115.859
37.5166 3.04992 115.859
37.9794 3.04992 115.859
38.7228 3.07218 116.705
38.6251 3.02798 115.025
71.3846 5.46609 207.643
73.1642 5.53801 210.376
76.0047 5.68769 216.061
76.8677 5.68769 216.061
82.1725 6.0127 228.408
84.289 6.09984 231.718
97.9967 7.01482 266.476
88.7114 6.28193 238.635
91.0232 6.37711 242.251
84.0447 5.7656 219.021
87.3116 5.92802 225.191
85.7944 5.7656 219.021
87.873 5.84568 222.063
91.296 6.0127 228.408
88.4189 5.7656 219.021
91.8091 5.92802 225.191
88.9501 5.68769 216.061
89.8132 5.68769 216.061
88.29 5.53801 210.376
85.7456 5.32771 202.387
24.1472 1.22351 46.4783
24.1922 1.21644 46.2097
24.59 1.22708 46.6138
24.7042 1.22351 46.4783
25.3317 1.24523 47.3034
26.0603 1.27157 48.3038
21.8887 1.06017 40.2734
26.3666 1.26774 48.1583
26.5589 1.26774 48.1583
27.1069 1.27542 48.4501
27.136 1.26774 48.1583
27.3284 1.26774 48.1583
27.6039 1.27157 48.3038
25.0592 1.09322 41.5287
34.4035 1.47164 55.904
34.7483 1.4768 56.1001
34.8501 1.47164 55.904
34.9512 1.46651 55.7092
35.2967 1.47164 55.904
35.3962 1.46651 55.7092
35.7433 1.47164 55.904
35.7168 1.46142 55.5158
35.5681 1.44635 54.9434
36.0352 1.45636 55.3237
36.2562 1.45636 55.3237
36.6038 1.46142 55.5158
36.8256 1.46142 55.5158
37.0473 1.46142 55.5158
37.5297 1.47164 55.904
37.6214 1.46651 55.7092
33.7032 1.21997 46.3436
34.1855 1.23067 46.7501
35.3013 1.26393 48.0136
35.1761 1.25265 47.5849
35.4718 1.25639 47.727
35.4508 1.24893 47.4437
35.6403 1.24893 47.4437
35.9364 1.25265 47.5849
36.1265 1.25265 47.5849
36.3166 1.25265 47.5849
37.0581 1.27157 48.3038
36.1586 1.23428 46.8872
36.5604 1.24156 47.1638
36.8575 1.24523 47.3034
-117.942 3.36634 111.032
-118.32 3.38988 111.808
-118.704 3.41376 112.595
-117.427 3.38988 111.808
-118.64 3.43797 113.394
-117.354 3.41376 112.595
-117.734 3.43797 113.394
-116.455 3.41376 112.595
-116.828 3.43797 113.394
-116.375 3.43797 113.394
-116.75 3.46252 114.204
-116.294 3.46252 114.204
-116.671 3.48743 115.025
-116.211 3.48743 115.025
-115.752 3.48743 115.025
-115.293 3.48743 115.025
-114.833 3.48743 115.025
-114.374 3.48743 115.025
-113.101 3.46252 114.204
-112.644 3.46252 114.204
-112.188 3.46252 114.204
-112.536 3.48743 115.025
-113.713 3.53835 116.705
-114.924 3.59077 118.434
-116.172 3.64476 120.215
-114.829 3.61756 119.317
-114.352 3.61756 119.317
-114.732 3.64476 120.215
-113.399 3.61756 119.317
-113.771 3.64476 120.215
-113.291 3.64476 120.215
-113.665 3.67237 121.125
-114.046 3.70041 122.05
-115.319 3.75778 123.942
-113.94 3.72887 122.989
-115.222 3.78714 124.91
-114.723 3.78714 124.91
-393.427 13.1014 432.123
-402.581 13.4654 444.126
-400.807 13.4654 444.126
-399.033 13.4654 444.126
-408.609 13.8501 456.815
-406.785 13.8501 456.815
-404.96 13.8501 456.815
-403.135 13.8501 456.815
-390.163 13.4654 444.126
-399.486 13.8501 456.815
-376.166 13.1014 432.123
-374.44 13.1014 432.123
-372.714 13.1014 432.123
-403.722 14.2575 470.251
-401.844 14.2575 470.251
-412.085 14.6895 484.501
-386.713 13.8501 456.815
-384.888 13.8501 456.815
-383.064 13.8501 456.815
-202.503 7.57427 249.821
-189.652 7.12873 235.126
-180.739 6.82751 225.191
-177.341 6.73269 222.063
-169.396 6.46338 213.181
-173.162 6.64046 219.021
-165.487 6.37833 210.376
-164.646 6.37833 210.376
-161.679 6.2955 207.643
-165.139 6.46338 213.181
-160.02 6.2955 207.643
-159.191 6.2955 207.643
-158.361 6.2955 207.643
-155.512 6.21479 204.981
-156.702 6.2955 207.643
-157.924 6.37833 210.376
-157.084 6.37833 210.376
-154.214 6.2955 207.643
-151.418 6.21479 204.981
-152.555 6.2955 207.643
-155.772 6.46338 213.181
-157.014 6.55072 216.061
-156.151 6.55072 216.061
-145.459 6.13612 202.387
-144.651 6.13612 202.387
-135.281 5.77087 190.34
-124.843 5.38615 177.65
-122.769 5.32696 175.698
-120.74 5.26906 173.788
-118.755 5.2124 171.92
-119.352 5.26906 173.788
-117.382 5.2124 171.92
-113.048 5.04952 166.547
-113.566 5.10267 168.3
-112.894 5.10267 168.3
-113.416 5.15695 170.091
-111.549 5.10267 168.3
-108.591 4.99746 164.83
-110.205 5.10267 168.3
-109.533 5.10267 168.3
-108.86 5.10267 168.3
-105.957 4.99746 164.83
-103.172 4.8965 161.5
-101.501 4.84753 159.885
-99.8642 4.79954 158.302
-97.305 4.70634 155.229
-97.6329 4.75248 156.75
-96.0649 4.70634 155.229
-95.4449 4.70634 155.229
-94.8249 4.70634 155.229
-96.0703 4.79954 158.302
-93.5848 4.70634 155.229
-93.8761 4.75248 156.75
-93.448 4.99746 164.83
-90.0059 4.84753 159.885
-101.987 5.57188 183.776
-102.43 5.63667 185.913
-101.688 5.63667 185.913
-93.6674 5.26906 173.788
-92.9732 5.26906 173.788
-87.5224 4.99746 164.83
-79.6376 4.6167 152.272
-79.0293 4.6167 152.272
-75.5433 4.44728 146.684
-75.6514 4.48846 148.042
-75.0601 4.48846 148.042
-74.4687 4.48846 148.042
-72.5342 4.40685 145.35
-72.6137 4.44728 146.684
-70.0985 4.32816 142.755
-68.913 4.28985 141.492
-67.7483 4.25222 140.25
-66.0296 4.17891 137.832
-64.9194 4.14319 136.654
-64.9285 4.17891 137.832
-64.378 4.17891 137.832
-63.8274 4.17891 137.832
-63.2769 4.17891 137.832
-62.7263 4.17891 137.832
-62.1757 4.17891 137.832
-62.1611 4.21525 139.031
-62.1461 4.25222 140.25
-61.5859 4.25222 140.25
-61.5657 4.28985 141.492
-62.6642 4.40685 145.35
-62.6532 4.44728 146.684
-62.0673 4.44728 146.684
-60.9225 4.40685 145.35
-60.3419 4.40685 145.35
-60.3096 4.44728 146.684
-60.2767 4.48846 148.042
-60.2431 4.53041 149.426
-59.6463 4.53041 149.426
-59.6065 4.57315 150.835
-59.004 4.57315 150.835
-58.4015 4.57315 150.835
-58.3495 4.6167 152.272
-57.7412 4.6167 152.272
-58.8134 4.75248 156.75
-131.986 11.0171 363.376
-136.75 11.5417 380.68
-129.083 11.0171 363.376
-112.316 9.69507 319.771
-108.861 9.50497 313.501
-105.539 9.32218 307.472
-108.484 9.69507 319.771
-107.206 9.69507 319.771
-103.852 9.50497 313.501
-100.627 9.32218 307.472
-97.5232 9.14629 301.671
-92.8157 8.8137 290.701
-91.6545 8.8137 290.701
-88.8774 8.65631 285.51
-87.737 8.65631 285.51
-85.0773 8.50445 280.501
-85.4561 8.65631 285.51
-82.8364 8.50445 280.501
-81.716 8.50445 280.501
-79.206 8.35782 275.665
-76.7811 8.21616 270.992
-74.437 8.07922 266.476
-73.3726 8.07922 266.476
-71.1228 7.94678 262.107
-70.0759 7.94678 262.107
-64.781 7.45775 245.978
-60.1 7.02541 231.718
-58.3291 6.92505 228.408
-56.608 6.82751 225.191
-22.3662 3.14775 103.822
-21.2612 3.04876 100.557
-20.9915 3.06806 101.193
-20.2037 3.01089 99.3077
-19.9308 3.02971 99.9284
-19.1722 2.97395 98.0892
-18.6659 2.95581 97.4911
-18.5021 2.99231 98.6947
-18.1079 2.99231 98.6947
-17.8237 3.01089 99.3077
-17.5359 3.02971 99.9284
-16.8214 2.97395 98.0892
-16.2304 2.9379 96.9003
-15.5604 2.88544 95.1699
-15.2712 2.90272 95.7398
-14.3347 2.86836 94.6068
-13.9568 2.86836 94.6068
-13.5789 2.86836 94.6068
-13.201 2.86836 94.6068
-12.7477 2.85149 94.0502
-12.4452 2.86836 94.6068
-11.9963 2.85149 94.0502
-11.4855 2.81833 92.9566
-11.05 2.80204 92.4193
-10.7429 2.81833 92.9566
-10.3117 2.80204 92.4193
-9.9425 2.80204 92.4193
-9.57335 2.80204 92.4193
-9.20419 2.80204 92.4193
-8.83503 2.80204 92.4193
-8.41722 2.78594 91.8882
-8.05018 2.78594 91.8882
-7.68315 2.78594 91.8882
-7.2743 2.77002 91.3631
-6.83129 2.73872 90.3307
-6.47048 2.73872 90.3307
-6.07534 2.72333 89.8233
-5.68461 2.70812 89.3215
-5.32783 2.70812 89.3215
-4.94343 2.69307 88.8252
-4.58863 2.69307 88.8252
-4.21043 2.6782 88.3345
-3.85759 2.6782 88.3345
-3.50475 2.6782 88.3345
-3.15191 2.6782 88.3345
-2.79907 2.6782 88.3345
-2.43278 2.66348 87.8491
-2.0705 2.64893 87.3691
-1.72152 2.64893 87.3691
-1.3577 2.62029 86.4246
-1.00704 2.6062 85.9599
-0.663683 2.6062 85.9599
-0.318613 2.59226 85.5002
0.0227852 2.57848 85.0454
0.360571 2.56483 84.5955
0.694802 2.55133 84.1502
1.03093 2.55133 84.1502
1.36706 2.55133 84.1502
1.69427 2.53798 83.7096
2.02864 2.53798 83.7096
2.363 2.53798 83.7096
2.72592 2.56483 84.5955
3.0477 2.55133 84.1502
3.38383 2.55133 84.1502
3.6812 2.52476 83.2737
4.01383 2.52476 83.2737
4.34646 2.52476 83.2737
4.65484 2.51168 82.8422
4.98574 2.51168 82.8422
5.34434 2.52476 83.2737
11.5955 5.15695 170.091
12.2749 5.15695 170.091
12.818 5.10267 168.3
13.4902 5.10267 168.3
14.1625 5.10267 168.3
14.6802 5.04952 166.547
15.1873 4.99746 164.83
15.5255 4.8965 161.5
15.695 4.75248 156.75
16.3077 4.57315 150.835
16.7522 4.53041 149.426
17.1884 4.48846 148.042
17.4565 4.40685 145.35
18.2026 4.44728 146.684
18.2852 4.32816 142.755
18.5246 4.25222 140.25
18.7558 4.17891 137.832
19.4742 4.21525 139.031
20.2053 4.25222 140.25
20.7655 4.25222 140.25
21.3257 4.25222 140.25
21.8859 4.25222 140.25
22.4461 4.25222 140.25
23.0063 4.25222 140.25
23.5665 4.25222 140.25
24.1268 4.25222 140.25
24.4723 4.21525 139.031
25.0276 4.21525 139.031
24.9326 4.10808 135.496
25.2597 4.07356 134.357
25.8978 4.00623 132.137
26.209 3.97339 131.054
26.7325 3.97339 131.054
27.0344 3.94108 129.988
27.5536 3.94108 129.988
28.0728 3.94108 129.988
28.592 3.94108 129.988
29.1113 3.94108 129.988
29.6305 3.94108 129.988
29.9066 3.9093 128.94
30.4216 3.9093 128.94
30.9366 3.9093 128.94
31.2001 3.87803 127.908
31.4593 3.84725 126.893
31.7145 3.81696 125.894
31.9656 3.78714 124.91
32.4646 3.78714 124.91
33.2231 3.81696 125.894
33.9936 3.84725 126.893
33.9614 3.78714 124.91
34.7317 3.81696 125.894
35.5142 3.84725 126.893
36.021 3.84725 126.893
36.5279 3.84725 126.893
36.7431 3.81696 125.894
36.6686 3.75778 123.942
36.0459 3.64476 120.215
35.985 3.59077 118.434
36.392 3.53835 116.705
36.3278 3.48743 115.025
36.5245 3.46252 114.204
37.2467 3.48743 115.025
37.7062 3.48743 115.025
38.1656 3.48743 115.025
38.0772 3.43797 113.394
38.2588 3.41376 112.595
72.3239 6.37833 210.376
74.1397 6.46338 213.181
77.0458 6.64046 219.021
77.9207 6.64046 219.021
88.4934 7.45775 245.978
88.1203 7.34475 242.251
99.6577 8.21616 270.992
94.3439 7.6945 253.786
92.4236 7.45775 245.978
85.2119 6.73269 222.063
87.3116 6.82751 225.191
84.635 6.55072 216.061
86.6692 6.64046 219.021
88.76 6.73269 222.063
87.2241 6.55072 216.061
89.2938 6.64046 219.021
88.9501 6.55072 216.061
89.8132 6.55072 216.061
88.29 6.37833 210.376
85.7456 6.13612 202.387
93.668 6.64046 219.021
24.1472 1.40917 46.4783
24.0532 1.39297 45.9441
24.5185 1.40917 46.4783
24.5614 1.40102 46.2097
25.9818 1.4601 48.1583
21.944 1.22412 40.3751
23.0089 1.25584 41.4211
22.878 1.23978 40.8914
23.7745 1.25259 41.3141
23.8165 1.24615 41.1017
24.0425 1.24936 41.2076
24.1448 1.24615 41.1017
24.9943 1.25584 41.4211
34.4035 1.69494 55.904
34.7483 1.70089 56.1001
34.8501 1.69494 55.904
35.0734 1.69494 55.904
35.2967 1.69494 55.904
35.52 1.69494 55.904
35.7433 1.69494 55.904
35.7168 1.68317 55.5158
35.6907 1.67156 55.1329
36.0352 1.67735 55.3237
36.2562 1.67735 55.3237
36.6038 1.68317 55.5158
36.8256 1.68317 55.5158
37.0473 1.68317 55.5158
37.5297 1.69494 55.904
37.753 1.69494 55.904
33.1408 1.39698 46.0765
33.7032 1.40508 46.3436
33.9868 1.40917 46.4783
