VERSION  1
FIELDS x y z 
SIZE 4 4 4 
TYPE F F F 
COUNT 1 1 1 
VIEWPOINT 0 0 0 1 0 0 0 
POINTS 1903
DATA ascii 
-33.8104 -10.951 87.6356
-33.5251 -10.951 87.6356
-33.3579 -10.9899 87.947
-33.1305 -11.0094 88.1034
-32.961 -11.0487 88.4181
-32.6732 -11.0487 88.4181
-32.5015 -11.0883 88.735
-32.1551 -11.0685 88.5763
-31.9812 -11.1082 88.8943
-31.6918 -11.1082 88.8943
-31.3462 -11.0883 88.735
-31.1131 -11.1082 88.8943
-30.8792 -11.1282 89.0542
-30.5893 -11.1282 89.0542
-30.2995 -11.1282 89.0542
-30.0096 -11.1282 89.0542
-29.7733 -11.1483 89.2147
-29.5361 -11.1684 89.3757
-29.2452 -11.1684 89.3757
-28.9543 -11.1684 89.3757
-28.7152 -11.1886 89.5373
-28.5269 -11.2292 89.8623
-28.2344 -11.2292 89.8623
-27.9927 -11.2496 90.0257
-27.6997 -11.2496 90.0257
-27.5067 -11.2907 90.3543
-27.3123 -11.332 90.6852
-27.0667 -11.3528 90.8516
-27.1193 -11.5005 92.0337
-26.8697 -11.522 92.2051
-26.6689 -11.565 92.5498
-26.417 -11.5867 92.7231
-26.1642 -11.6084 92.8971
-25.8618 -11.6084 92.8971
-25.5116 -11.5867 92.7231
-25.4 -11.6741 93.4229
-25.3349 -11.7853 94.3126
-25.1237 -11.8304 94.6733
-24.9108 -11.8758 95.0367
-24.6962 -11.9216 95.403
-24.4328 -11.9446 95.5871
-24.1216 -11.9446 95.5871
-23.8105 -11.9446 95.5871
-23.4994 -11.9446 95.5871
-23.2331 -11.9677 95.772
-23.0104 -12.0142 96.144
-22.6974 -12.0142 96.144
-22.3845 -12.0142 96.144
-22.0715 -12.0142 96.144
-21.8434 -12.061 96.5188
-21.5292 -12.061 96.5188
-21.2565 -12.0845 96.7073
-21.0239 -12.1319 97.0865
-20.7078 -12.1319 97.0865
-20.4721 -12.1797 97.4688
-20.1946 -12.2037 97.661
-19.8767 -12.2037 97.661
-19.5203 -12.1797 97.4688
-19.241 -12.2037 97.661
-19.1116 -12.3253 98.6337
-18.828 -12.3499 98.8306
-18.7306 -12.4996 100.029
-18.0795 -12.4996 100.029
-21.3722 -21.8632 174.962
-20.7294 -21.7862 174.346
-20.021 -21.6339 173.126
-19.3896 -21.5585 172.523
-18.8281 -21.5585 172.523
-18.2665 -21.5585 172.523
-17.705 -21.5585 172.523
-17.0839 -21.4836 171.924
-16.4103 -21.3355 170.738
-15.8001 -21.2622 170.152
-15.194 -21.1893 169.569
-14.6421 -21.1893 169.569
-14.0902 -21.1893 169.569
-13.492 -21.117 168.99
-12.942 -21.117 168.99
-12.3498 -21.0452 168.415
-11.8016 -21.0452 168.415
-11.2152 -20.9739 167.845
-10.6689 -20.9739 167.845
-10.1226 -20.9739 167.845
-9.57625 -20.9739 167.845
-9.02992 -20.9739 167.845
-8.48359 -20.9739 167.845
-7.91044 -20.903 167.277
-7.34116 -20.8326 166.714
-15.7574 -80.3544 643.041
-13.3184 -78.3201 626.761
-11.1374 -77.3411 618.927
-9.12278 -77.3411 618.927
-7.1082 -77.3411 618.927
-5.09361 -77.3411 618.927
-3.00393 -75.4547 603.831
-1.06444 -77.3411 618.927
0.950147 -77.3411 618.927
2.92813 -76.3863 611.286
4.85787 -75.4547 603.831
6.74111 -74.5456 596.556
8.68288 -74.5456 596.556
10.6247 -74.5456 596.556
12.5664 -74.5456 596.556
14.3355 -73.6582 589.454
16.2541 -73.6582 589.454
18.1728 -73.6582 589.454
19.8551 -72.7916 582.519
21.4982 -71.9452 575.746
23.3723 -71.9452 575.746
24.9561 -71.1182 569.128
26.504 -70.3101 562.661
28.3354 -70.3101 562.661
30.1668 -70.3101 562.661
31.6388 -69.5201 556.339
33.078 -68.7476 550.157
34.4855 -67.9922 544.111
36.2566 -67.9922 544.111
38.0277 -67.9922 544.111
39.3661 -67.2531 538.197
41.5698 -67.9922 544.111
43.3408 -67.9922 544.111
45.1119 -67.9922 544.111
47.4039 -68.7476 550.157
49.1946 -68.7476 550.157
50.9854 -68.7476 550.157
52.7761 -68.7476 550.157
55.18 -69.5201 556.339
56.3576 -68.7476 550.157
58.1484 -68.7476 550.157
60.6126 -69.5201 556.339
62.4234 -69.5201 556.339
64.2343 -69.5201 556.339
66.7957 -70.3101 562.661
67.856 -69.5201 556.339
70.4586 -70.3101 562.661
71.4778 -69.5201 556.339
73.2886 -69.5201 556.339
75.0995 -69.5201 556.339
73.6024 -66.53 532.41
72.9811 -64.4509 515.772
73.1363 -63.1356 505.246
68.0881 -56.2481 450.129
71.354 -54.2745 434.335
72.2794 -52.8828 423.198
70.0639 -50.3032 402.554
72.5539 -51.1346 409.208
73.2803 -50.7155 405.854
73.9948 -50.3032 402.554
75.3051 -50.3032 402.554
76.6154 -50.3032 402.554
78.5644 -50.7155 405.854
79.8855 -50.7155 405.854
80.5463 -50.3032 402.554
81.1964 -49.8975 399.308
82.4962 -49.8975 399.308
82.4658 -49.1055 392.969
83.0855 -48.7188 389.875
85.7042 -49.4983 396.113
86.3031 -49.1055 392.969
86.2138 -48.3382 386.829
87.4729 -48.3382 386.829
137.207 -67.9922 544.111
133.127 -65.1293 521.201
134.823 -65.1293 521.201
137.972 -65.8222 526.746
139.686 -65.8222 526.746
142.921 -66.53 532.41
144.654 -66.53 532.41
144.83 -65.8222 526.746
148.12 -66.53 532.41
149.853 -66.53 532.41
149.974 -65.8222 526.746
151.688 -65.8222 526.746
155.052 -66.53 532.41
156.785 -66.53 532.41
158.518 -66.53 532.41
160.251 -66.53 532.41
160.261 -65.8222 526.746
163.717 -66.53 532.41
163.69 -65.8222 526.746
165.405 -65.8222 526.746
153.14 -55.7413 446.073
146.664 -52.8828 423.198
154.651 -55.2436 442.091
154.708 -54.7548 438.178
156.135 -54.7548 438.178
158.968 -55.2436 442.091
160.407 -55.2436 442.091
161.846 -55.2436 442.091
163.285 -55.2436 442.091
163.266 -54.7548 438.178
164.692 -54.7548 438.178
166.118 -54.7548 438.178
169.041 -55.2436 442.091
170.48 -55.2436 442.091
175.044 -56.2481 450.129
176.509 -56.2481 450.129
177.975 -56.2481 450.129
179.44 -56.2481 450.129
180.905 -56.2481 450.129
180.727 -55.7413 446.073
188.989 -57.8251 462.749
183.631 -55.7413 446.073
215.452 -45.8318 366.771
216.646 -45.8318 366.771
217.84 -45.8318 366.771
-1938.75 386.705 -3094.63
-1948.83 386.705 -3094.63
-1958.9 386.705 -3094.63
-1968.97 386.705 -3094.63
-1979.05 386.705 -3094.63
-1989.12 386.705 -3094.63
-1999.19 386.705 -3094.63
-2009.26 386.705 -3094.63
-2019.34 386.705 -3094.63
-2029.41 386.705 -3094.63
-2039.48 386.705 -3094.63
-2049.56 386.705 -3094.63
-2059.63 386.705 -3094.63
-40.3679 -10.2311 84.0648
-39.7568 -10.145 83.3571
-39.2213 -10.0771 82.7996
-38.8868 -10.0603 82.6613
-38.6177 -10.0603 82.6613
-38.3487 -10.0603 82.6613
-38.0796 -10.0603 82.6613
-38.0009 -10.1109 83.0774
-37.9854 -10.1793 83.6387
-37.841 -10.2138 83.9223
-37.5678 -10.2138 83.9223
-37.4215 -10.2485 84.2077
-37.2742 -10.2835 84.4951
-37.1896 -10.3364 84.9299
-36.9765 -10.3542 85.0758
-36.6996 -10.3542 85.0758
-36.4227 -10.3542 85.0758
-36.1458 -10.3542 85.0758
-35.9306 -10.372 85.2223
-35.7147 -10.3899 85.3692
-35.4368 -10.3899 85.3692
-35.1589 -10.3899 85.3692
-34.9413 -10.4078 85.5166
-34.7229 -10.4258 85.6646
-34.5038 -10.4439 85.8131
-33.8104 -10.6657 87.6356
-33.5845 -10.6846 87.791
-33.3579 -10.7036 87.947
-33.1896 -10.7417 88.2605
-32.961 -10.7609 88.4181
-32.7317 -10.7802 88.5763
-32.5015 -10.7995 88.735
-32.1551 -10.7802 88.5763
-31.9812 -10.8189 88.8943
-31.6918 -10.8189 88.8943
-31.3462 -10.7995 88.735
-31.0574 -10.7995 88.735
-30.8238 -10.8189 88.8943
-30.5893 -10.8383 89.0542
-30.2995 -10.8383 89.0542
-30.0096 -10.8383 89.0542
-29.7197 -10.8383 89.0542
-29.4829 -10.8579 89.2147
-29.1925 -10.8579 89.2147
-28.9543 -10.8775 89.3757
-28.7152 -10.8971 89.5373
-28.5269 -10.9367 89.8623
-28.2344 -10.9367 89.8623
-27.9419 -10.9367 89.8623
-27.6997 -10.9566 90.0257
-27.4566 -10.9765 90.1897
-27.3123 -11.0369 90.6852
-27.0667 -11.0571 90.8516
-27.1193 -11.201 92.0337
-26.8697 -11.2218 92.2051
-26.6689 -11.2638 92.5498
-26.417 -11.2849 92.7231
-26.1642 -11.306 92.8971
-25.8618 -11.306 92.8971
-25.5116 -11.2849 92.7231
-25.4 -11.37 93.4229
-25.3349 -11.4783 94.3126
-25.1237 -11.5222 94.6733
-24.9108 -11.5665 95.0367
-24.6962 -11.611 95.403
-24.4328 -11.6334 95.5871
-24.1216 -11.6334 95.5871
-23.8105 -11.6334 95.5871
-23.4994 -11.6334 95.5871
-23.2331 -11.6559 95.772
-23.0104 -11.7012 96.144
-22.6974 -11.7012 96.144
-22.3845 -11.7012 96.144
-22.0715 -11.7012 96.144
-21.8009 -11.724 96.331
-21.4874 -11.724 96.331
-21.2151 -11.7468 96.5188
-20.9827 -11.7928 96.8966
-20.6673 -11.7928 96.8966
-20.4319 -11.8391 97.2773
-20.1549 -11.8624 97.4688
-19.8767 -11.8858 97.661
-19.5203 -11.8624 97.4688
-19.241 -11.8858 97.661
-19.1116 -12.0042 98.6337
-18.828 -12.0282 98.8306
-18.6553 -12.125 99.626
-18.043 -12.1494 99.8269
-21.2969 -21.2187 174.346
-20.7294 -21.2187 174.346
-20.021 -21.0704 173.126
-19.3896 -20.9969 172.523
-18.8281 -20.9969 172.523
-18.2665 -20.9969 172.523
-17.705 -20.9969 172.523
-17.0839 -20.924 171.924
-16.4103 -20.7797 170.738
-15.8001 -20.7083 170.152
-15.2463 -20.7083 170.152
-14.6924 -20.7083 170.152
-14.1386 -20.7083 170.152
-13.5382 -20.6374 169.569
-12.942 -20.567 168.99
-12.3498 -20.497 168.415
-11.8016 -20.497 168.415
-11.2152 -20.4275 167.845
-10.7052 -20.497 168.415
-10.1226 -20.4275 167.845
-9.57625 -20.4275 167.845
-9.06063 -20.497 168.415
-8.48359 -20.4275 167.845
-13.152 -75.3265 618.927
-11.1374 -75.3265 618.927
-9.12278 -75.3265 618.927
-7.1082 -75.3265 618.927
-5.09361 -75.3265 618.927
-3.00393 -73.4893 603.831
-1.06444 -75.3265 618.927
0.950147 -75.3265 618.927
2.92813 -74.3966 611.286
4.85787 -73.4893 603.831
6.74111 -72.6039 596.556
8.68288 -72.6039 596.556
10.6247 -72.6039 596.556
12.5664 -72.6039 596.556
14.3355 -71.7395 589.454
16.2541 -71.7395 589.454
18.1728 -71.7395 589.454
19.8551 -70.8955 582.519
21.4982 -70.0712 575.746
23.3723 -70.0712 575.746
24.9561 -69.2658 569.128
26.504 -68.4786 562.661
28.3354 -68.4786 562.661
30.1668 -68.4786 562.661
31.6388 -67.7092 556.339
33.078 -66.9569 550.157
34.4855 -66.2211 544.111
36.2566 -66.2211 544.111
38.0277 -66.2211 544.111
39.3661 -65.5013 538.197
41.5698 -66.2211 544.111
43.3408 -66.2211 544.111
45.6132 -66.9569 550.157
47.4039 -66.9569 550.157
49.1946 -66.9569 550.157
50.9854 -66.9569 550.157
52.7761 -66.9569 550.157
55.18 -67.7092 556.339
56.9908 -67.7092 556.339
58.1484 -66.9569 550.157
61.3014 -68.4786 562.661
62.4234 -67.7092 556.339
64.2343 -67.7092 556.339
66.7957 -68.4786 562.661
68.6271 -68.4786 562.661
70.4586 -68.4786 562.661
72.29 -68.4786 562.661
74.1214 -68.4786 562.661
75.9529 -68.4786 562.661
74.4024 -65.5013 538.197
73.7493 -63.4328 521.201
72.3975 -60.8699 500.143
70.4666 -57.9435 476.097
71.6669 -51.0688 419.611
70.0639 -48.9929 402.554
71.9592 -49.3944 405.854
72.6845 -48.9929 402.554
73.9948 -48.9929 402.554
75.3051 -48.9929 402.554
76.6154 -48.9929 402.554
77.9257 -48.9929 402.554
79.8855 -49.3944 405.854
79.8967 -48.5977 399.308
80.5469 -48.209 396.113
81.8362 -48.209 396.113
81.8165 -47.4498 389.875
82.4364 -47.0791 386.829
85.024 -47.8264 392.969
85.6236 -47.4498 389.875
85.5454 -46.7141 383.831
134.543 -64.1077 526.746
136.257 -64.1077 526.746
137.972 -64.1077 526.746
139.686 -64.1077 526.746
142.921 -64.797 532.41
144.654 -64.797 532.41
146.387 -64.797 532.41
149.73 -65.5013 538.197
149.853 -64.797 532.41
151.586 -64.797 532.41
151.688 -64.1077 526.746
156.738 -65.5013 538.197
158.489 -65.5013 538.197
158.518 -64.797 532.41
160.251 -64.797 532.41
160.261 -64.1077 526.746
165.497 -65.5013 538.197
163.69 -64.1077 526.746
165.405 -64.1077 526.746
153.14 -54.2894 446.073
146.664 -51.5053 423.198
156.044 -54.2894 446.073
156.09 -53.8046 442.091
157.529 -53.8046 442.091
158.968 -53.8046 442.091
160.407 -53.8046 442.091
161.846 -53.8046 442.091
163.285 -53.8046 442.091
164.724 -53.8046 442.091
164.692 -53.3285 438.178
166.118 -53.3285 438.178
169.041 -53.8046 442.091
172.015 -54.2894 446.073
175.044 -54.7829 450.129
176.509 -54.7829 450.129
179.607 -55.2855 454.258
181.086 -55.2855 454.258
182.565 -55.2855 454.258
184.043 -55.2855 454.258
190.772 -56.8502 467.115
187 -55.2855 454.258
162.687 -38.629 317.398
156.689 -36.9701 303.768
153.901 -36.0846 296.492
155.05 -35.0356 287.873
155.085 -34.8331 286.209
156.017 -34.8331 286.209
215.452 -44.6379 366.771
216.646 -44.6379 366.771
217.84 -44.6379 366.771
-1938.75 376.633 -3094.63
-1948.83 376.633 -3094.63
-1958.9 376.633 -3094.63
-1968.97 376.633 -3094.63
-1979.05 376.633 -3094.63
-1989.12 376.633 -3094.63
-1999.19 376.633 -3094.63
-2009.26 376.633 -3094.63
-2019.34 376.633 -3094.63
-2029.41 376.633 -3094.63
-2039.48 376.633 -3094.63
-2049.56 376.633 -3094.63
-2059.63 376.633 -3094.63
-40.3679 -9.95748 84.0648
-39.7568 -9.87366 83.3571
-39.2213 -9.80762 82.7996
-38.8868 -9.79124 82.6613
-38.5534 -9.77492 82.5236
-38.2848 -9.77492 82.5236
-38.0161 -9.77492 82.5236
-37.8738 -9.80762 82.7996
-37.7939 -9.85707 83.217
-37.777 -9.92378 83.7803
-37.5043 -9.92378 83.7803
-37.358 -9.95748 84.0648
-37.2107 -9.9914 84.3512
-37.1259 -10.0427 84.7845
-36.9131 -10.06 84.9299
-36.6367 -10.06 84.9299
-36.3602 -10.06 84.9299
-36.0838 -10.06 84.9299
-35.8689 -10.0772 85.0758
-35.6532 -10.0946 85.2223
-35.3758 -10.0946 85.2223
-35.0984 -10.0946 85.2223
-34.8811 -10.112 85.3692
-34.663 -10.1295 85.5166
-34.3846 -10.1295 85.5166
-33.8703 -10.3989 87.791
-33.6442 -10.4173 87.947
-33.4173 -10.4359 88.1034
-33.1896 -10.4545 88.2605
-32.961 -10.4731 88.4181
-32.7317 -10.4919 88.5763
-32.5015 -10.5107 88.735
-32.2127 -10.5107 88.735
-31.9812 -10.5295 88.8943
-31.6918 -10.5295 88.8943
-31.3462 -10.5107 88.735
-31.0574 -10.5107 88.735
-30.8238 -10.5295 88.8943
-30.5893 -10.5485 89.0542
-30.2995 -10.5485 89.0542
-29.9557 -10.5295 88.8943
-29.7197 -10.5485 89.0542
-29.4829 -10.5675 89.2147
-29.1925 -10.5675 89.2147
-28.9021 -10.5675 89.2147
-28.7152 -10.6057 89.5373
-28.5269 -10.6442 89.8623
-28.1833 -10.6249 89.6995
-27.9419 -10.6442 89.8623
-27.6997 -10.6636 90.0257
-27.4566 -10.683 90.1897
-27.2624 -10.722 90.5194
-27.0667 -10.7614 90.8516
-27.1698 -10.9217 92.2051
-26.9198 -10.9421 92.3771
-26.7188 -10.9831 92.7231
-26.4666 -11.0037 92.8971
-26.2134 -11.0243 93.0717
-25.9104 -11.0243 93.0717
-25.5594 -11.0037 92.8971
-25.4 -11.066 93.4229
-25.3349 -11.1713 94.3126
-25.1237 -11.2141 94.6733
-24.9108 -11.2571 95.0367
-24.6962 -11.3005 95.403
-24.4328 -11.3223 95.5871
-24.1216 -11.3223 95.5871
-23.8105 -11.3223 95.5871
-23.4994 -11.3223 95.5871
-23.2331 -11.3442 95.772
-23.0104 -11.3883 96.144
-22.6974 -11.3883 96.144
-22.3845 -11.3883 96.144
-22.0715 -11.3883 96.144
-21.7586 -11.3883 96.144
-21.4874 -11.4104 96.331
-21.1738 -11.4104 96.331
-20.9417 -11.455 96.7073
-20.627 -11.455 96.7073
-20.4319 -11.5225 97.2773
-20.1549 -11.5452 97.4688
-19.8767 -11.568 97.661
-19.5588 -11.568 97.661
-19.279 -11.5908 97.854
-19.1116 -11.6832 98.6337
-18.828 -11.7065 98.8306
-18.6178 -11.777 99.426
-18.4051 -11.8484 100.029
-18.0067 -11.8007 99.626
-20.6567 -20.5788 173.734
-19.9512 -20.4354 172.523
-19.3223 -20.3644 171.924
-18.6978 -20.294 171.329
-18.2031 -20.3644 171.924
-17.705 -20.4354 172.523
-17.0839 -20.3644 171.924
-16.4103 -20.224 170.738
-15.8001 -20.1545 170.152
-15.194 -20.0855 169.569
-14.6421 -20.0855 169.569
-14.0902 -20.0855 169.569
-13.5382 -20.0855 169.569
-12.8979 -19.9488 168.415
-12.3498 -19.9488 168.415
-11.8016 -19.9488 168.415
-11.2152 -19.8812 167.845
-10.7052 -19.9488 168.415
-10.1226 -19.8812 167.845
-9.57625 -19.8812 167.845
-9.06063 -19.9488 168.415
-13.152 -73.3119 618.927
-10.9999 -72.4068 611.286
-9.01016 -72.4068 611.286
-7.02044 -72.4068 611.286
-5.03073 -72.4068 611.286
-3.00393 -71.5238 603.831
-1.0513 -72.4068 611.286
0.938417 -72.4068 611.286
2.89242 -71.5238 603.831
4.85787 -71.5238 603.831
6.74111 -70.6621 596.556
8.68288 -70.6621 596.556
10.6247 -70.6621 596.556
12.5664 -70.6621 596.556
14.3355 -69.8209 589.454
16.2541 -69.8209 589.454
18.1728 -69.8209 589.454
19.8551 -68.9995 582.519
21.4982 -68.1971 575.746
23.1036 -67.4133 569.128
24.9561 -67.4133 569.128
26.504 -66.6472 562.661
28.017 -65.8984 556.339
30.1668 -66.6472 562.661
31.6388 -65.8984 556.339
33.078 -65.1662 550.157
34.4855 -64.45 544.111
36.2566 -64.45 544.111
38.0277 -64.45 544.111
39.7987 -64.45 544.111
41.5698 -64.45 544.111
43.8224 -65.1662 550.157
45.6132 -65.1662 550.157
47.4039 -65.1662 550.157
49.1946 -65.1662 550.157
51.5583 -65.8984 556.339
53.3691 -65.8984 556.339
55.807 -66.6472 562.661
56.9908 -65.8984 556.339
58.1484 -65.1662 550.157
61.3014 -66.6472 562.661
63.1328 -66.6472 562.661
64.9642 -66.6472 562.661
66.7957 -66.6472 562.661
68.6271 -66.6472 562.661
70.4586 -66.6472 562.661
72.29 -66.6472 562.661
73.2886 -65.8984 556.339
75.0995 -65.8984 556.339
74.4024 -63.7495 538.197
73.7493 -61.7364 521.201
70.9639 -58.0688 490.239
70.4724 -48.8746 412.618
68.9429 -46.9196 396.113
71.3742 -47.6825 402.554
72.0983 -47.298 399.308
73.398 -47.298 399.308
74.1002 -46.9196 396.113
75.3895 -46.9196 396.113
77.2972 -47.298 399.308
78.597 -47.298 399.308
79.2575 -46.9196 396.113
79.2784 -46.1807 389.875
80.5474 -46.1807 389.875
81.1773 -45.82 386.829
81.1682 -45.115 380.878
83.6955 -45.82 386.829
84.9546 -45.82 386.829
84.8874 -45.115 380.878
134.543 -62.3931 526.746
136.257 -62.3931 526.746
139.456 -63.064 532.41
141.188 -63.064 532.41
144.475 -63.7495 538.197
146.227 -63.7495 538.197
147.979 -63.7495 538.197
149.73 -63.7495 538.197
151.482 -63.7495 538.197
151.586 -63.064 532.41
153.319 -63.064 532.41
156.738 -63.7495 538.197
158.489 -63.7495 538.197
160.241 -63.7495 538.197
161.993 -63.7495 538.197
161.984 -63.064 532.41
165.497 -63.7495 538.197
165.45 -63.064 532.41
153.14 -52.8374 446.073
147.928 -50.5599 426.846
156.044 -52.8374 446.073
156.09 -52.3657 442.091
157.529 -52.3657 442.091
160.4 -52.8374 446.073
161.852 -52.8374 446.073
163.304 -52.8374 446.073
164.756 -52.8374 446.073
164.724 -52.3657 442.091
166.163 -52.3657 442.091
167.602 -52.3657 442.091
169.041 -52.3657 442.091
172.015 -52.8374 446.073
176.65 -53.8069 454.258
176.509 -53.3178 450.129
179.607 -53.8069 454.258
181.086 -53.8069 454.258
182.565 -53.8069 454.258
184.043 -53.8069 454.258
190.772 -55.3298 467.115
187 -53.8069 454.258
161.651 -37.3564 315.377
155.734 -35.7619 301.915
154.829 -35.331 298.278
153.987 -34.7039 292.983
155.014 -34.298 289.556
155.05 -34.0986 287.873
155.987 -34.0986 287.873
156.017 -33.9015 286.209
152.54 -32.9492 278.169
149.445 -31.532 266.205
-1938.75 366.56 -3094.63
-1948.83 366.56 -3094.63
-1958.9 366.56 -3094.63
-1968.97 366.56 -3094.63
-1979.05 366.56 -3094.63
-1989.12 366.56 -3094.63
-1999.19 366.56 -3094.63
-2009.26 366.56 -3094.63
-2019.34 366.56 -3094.63
-2029.41 366.56 -3094.63
-2039.48 366.56 -3094.63
-2049.56 366.56 -3094.63
-2059.63 366.56 -3094.63
-40.3679 -9.68385 84.0648
-39.8238 -9.61853 83.4977
-39.2213 -9.53811 82.7996
-38.822 -9.50631 82.5236
-38.4892 -9.49049 82.3863
-38.1576 -9.47473 82.2494
-37.9529 -9.49049 82.3863
-37.7475 -9.50631 82.5236
-37.7305 -9.57011 83.0774
-37.777 -9.65108 83.7803
-37.5043 -9.65108 83.7803
-37.358 -9.68385 84.0648
-37.2107 -9.71684 84.3512
-37.1259 -9.76676 84.7845
-36.8499 -9.76676 84.7845
-36.5739 -9.76676 84.7845
-36.298 -9.76676 84.7845
-36.022 -9.76676 84.7845
-35.8073 -9.78351 84.9299
-35.592 -9.80032 85.0758
-35.315 -9.80032 85.0758
-35.0381 -9.80032 85.0758
-34.821 -9.81719 85.2223
-34.6032 -9.83412 85.3692
-34.3253 -9.83412 85.3692
-33.9305 -10.1311 87.947
-33.6442 -10.1311 87.947
-33.4173 -10.1491 88.1034
-33.2488 -10.1853 88.4181
-32.961 -10.1853 88.4181
-32.7317 -10.2036 88.5763
-32.5015 -10.2218 88.735
-32.2127 -10.2218 88.735
-31.9812 -10.2402 88.8943
-31.6918 -10.2402 88.8943
-31.3462 -10.2218 88.735
-31.1131 -10.2402 88.8943
-30.8238 -10.2402 88.8943
-30.5893 -10.2586 89.0542
-30.2995 -10.2586 89.0542
-29.9557 -10.2402 88.8943
-29.7197 -10.2586 89.0542
-29.4829 -10.2771 89.2147
-29.1925 -10.2771 89.2147
-28.9021 -10.2771 89.2147
-28.7152 -10.3143 89.5373
-28.4753 -10.3329 89.6995
-28.1833 -10.3329 89.6995
-27.9419 -10.3517 89.8623
-27.6997 -10.3705 90.0257
-27.5067 -10.4084 90.3543
-27.2624 -10.4274 90.5194
-27.0667 -10.4657 90.8516
-27.2205 -10.6414 92.3771
-26.9701 -10.6613 92.5498
-26.7188 -10.6812 92.7231
-26.5163 -10.7214 93.0717
-26.2627 -10.7416 93.247
-25.9104 -10.7214 93.0717
-25.5594 -10.7013 92.8971
-25.3522 -10.7416 93.247
-25.3349 -10.8644 94.3126
-25.1237 -10.9059 94.6733
-24.9108 -10.9478 95.0367
-24.6962 -10.99 95.403
-24.4328 -11.0112 95.5871
-24.1216 -11.0112 95.5871
-23.8105 -11.0112 95.5871
-23.4994 -11.0112 95.5871
-23.2331 -11.0325 95.772
-22.9658 -11.0539 95.9576
-22.6974 -11.0753 96.144
-22.3845 -11.0753 96.144
-22.0715 -11.0753 96.144
-21.7586 -11.0753 96.144
-21.4456 -11.0753 96.144
-21.1738 -11.0969 96.331
-20.9417 -11.1402 96.7073
-20.627 -11.1402 96.7073
-20.3918 -11.1839 97.0865
-20.1549 -11.2279 97.4688
-19.8767 -11.2501 97.661
-19.5588 -11.2501 97.661
-19.279 -11.2723 97.854
-19.1116 -11.3621 98.6337
-18.8657 -11.4076 99.0283
-18.6553 -11.4764 99.626
-18.4051 -11.5228 100.029
-18.0067 -11.4764 99.626
-20.4415 -19.8048 171.924
-19.8819 -19.8048 171.924
-19.2555 -19.7363 171.329
-18.5693 -19.6006 170.152
-18.1401 -19.7363 171.329
-17.5825 -19.7363 171.329
-17.0248 -19.7363 171.329
-16.3539 -19.6006 170.152
-15.746 -19.5335 169.569
-15.194 -19.5335 169.569
-14.5921 -19.4668 168.99
-14.0902 -19.5335 169.569
-13.492 -19.4668 168.99
-12.8979 -19.4006 168.415
-12.3079 -19.3349 167.845
-11.7616 -19.3349 167.845
-11.2152 -19.3349 167.845
-10.6689 -19.3349 167.845
-10.1226 -19.3349 167.845
-9.57625 -19.3349 167.845
-13.152 -71.2973 618.927
-11.1374 -71.2973 618.927
-9.01016 -70.4171 611.286
-7.02044 -70.4171 611.286
-5.03073 -70.4171 611.286
-3.00393 -69.5584 603.831
-1.03848 -69.5584 603.831
0.938417 -70.4171 611.286
2.89242 -69.5584 603.831
4.79934 -68.7203 596.556
6.74111 -68.7203 596.556
8.68288 -68.7203 596.556
10.6247 -68.7203 596.556
12.5664 -68.7203 596.556
14.3355 -67.9022 589.454
16.2541 -67.9022 589.454
18.1728 -67.9022 589.454
19.8551 -67.1034 582.519
21.4982 -66.3231 575.746
23.1036 -65.5608 569.128
24.9561 -65.5608 569.128
26.504 -64.8158 562.661
28.017 -64.0875 556.339
30.1668 -64.8158 562.661
31.6388 -64.0875 556.339
33.078 -63.3754 550.157
34.1107 -61.9977 538.197
35.8625 -61.9977 538.197
37.6143 -61.9977 538.197
39.3661 -61.9977 538.197
41.5698 -62.679 544.111
43.3408 -62.679 544.111
45.6132 -63.3754 550.157
47.4039 -63.3754 550.157
49.1946 -63.3754 550.157
50.9854 -63.3754 550.157
52.7761 -63.3754 550.157
55.18 -64.0875 556.339
56.3576 -63.3754 550.157
58.1484 -63.3754 550.157
60.6126 -64.0875 556.339
63.1328 -64.8158 562.661
64.2343 -64.0875 556.339
66.7957 -64.8158 562.661
67.856 -64.0875 556.339
70.4586 -64.8158 562.661
70.6836 -63.3754 550.157
72.4743 -63.3754 550.157
74.265 -63.3754 550.157
72.8194 -60.6786 526.746
71.4917 -58.2019 505.246
70.2682 -55.9195 485.433
67.327 -44.5608 386.829
70.2322 -45.6303 396.113
70.9539 -45.2682 392.969
72.233 -45.2682 392.969
73.5121 -45.2682 392.969
75.3895 -45.6303 396.113
76.6789 -45.6303 396.113
78.597 -45.9983 399.308
78.6285 -45.2682 392.969
79.2784 -44.9117 389.875
80.5474 -44.9117 389.875
80.548 -44.2154 383.831
81.1682 -43.8753 380.878
83.6955 -44.5608 386.829
84.9546 -44.5608 386.829
85.5454 -44.2154 383.831
134.543 -60.6786 526.746
136.257 -60.6786 526.746
139.456 -61.331 532.41
141.188 -61.331 532.41
144.475 -61.9977 538.197
147.834 -62.679 544.111
147.979 -61.9977 538.197
151.376 -62.679 544.111
153.147 -62.679 544.111
153.234 -61.9977 538.197
153.319 -61.331 532.41
158.46 -62.679 544.111
160.231 -62.679 544.111
162.002 -62.679 544.111
161.993 -61.9977 538.197
163.745 -61.9977 538.197
167.315 -62.679 544.111
167.249 -61.9977 538.197
154.532 -51.8526 450.129
147.928 -49.1706 426.846
157.462 -51.8526 450.129
157.496 -51.3855 446.073
158.948 -51.3855 446.073
160.4 -51.3855 446.073
161.852 -51.3855 446.073
164.788 -51.8526 450.129
164.756 -51.3855 446.073
164.724 -50.9267 442.091
166.163 -50.9267 442.091
167.602 -50.9267 442.091
170.563 -51.3855 446.073
173.579 -51.8526 450.129
176.65 -52.3283 454.258
178.129 -52.3283 454.258
179.607 -52.3283 454.258
181.086 -52.3283 454.258
184.255 -52.8128 458.464
160.628 -36.0999 313.381
155.734 -34.7792 301.915
153.901 -34.1544 296.492
153.987 -33.7502 292.983
154.941 -33.7502 292.983
155.014 -33.3555 289.556
155.05 -33.1616 287.873
155.085 -32.9699 286.209
155.12 -32.7804 284.564
151.687 -31.8647 276.615
150.253 -30.8313 267.644
-1938.75 356.487 -3094.63
-1948.83 356.487 -3094.63
-1958.9 356.487 -3094.63
-1968.97 356.487 -3094.63
-1979.05 356.487 -3094.63
-1989.12 356.487 -3094.63
-1999.19 356.487 -3094.63
-2009.26 356.487 -3094.63
-2019.34 356.487 -3094.63
-2029.41 356.487 -3094.63
-2039.48 356.487 -3094.63
-2049.56 356.487 -3094.63
-2059.63 356.487 -3094.63
-39.8911 -9.36253 83.6387
-39.2213 -9.26859 82.7996
-38.822 -9.2377 82.5236
-38.4892 -9.22233 82.3863
-38.0943 -9.19174 82.113
-37.827 -9.19174 82.113
-37.6847 -9.22233 82.3863
-37.6673 -9.28412 82.9383
-37.777 -9.37838 83.7803
-37.5043 -9.37838 83.7803
-37.358 -9.41022 84.0648
-37.2107 -9.44228 84.3512
-37.0624 -9.47456 84.6395
-36.7869 -9.47456 84.6395
-36.5114 -9.47456 84.6395
-36.2359 -9.47456 84.6395
-36.022 -9.49079 84.7845
-35.746 -9.49079 84.7845
-35.5309 -9.50707 84.9299
-35.2545 -9.50707 84.9299
-34.978 -9.50707 84.9299
-34.7612 -9.5234 85.0758
-34.4843 -9.5234 85.0758
-34.2074 -9.5234 85.0758
-34.0514 -9.87989 88.2605
-33.7641 -9.87989 88.2605
-33.4769 -9.87989 88.2605
-33.3083 -9.91524 88.5763
-33.02 -9.91524 88.5763
-32.7317 -9.91524 88.5763
-32.5015 -9.93301 88.735
-32.2127 -9.93301 88.735
-31.9812 -9.95084 88.8943
-31.6918 -9.95084 88.8943
-31.3462 -9.93301 88.735
-31.1131 -9.95084 88.8943
-30.8238 -9.95084 88.8943
-30.5893 -9.96874 89.0542
-30.2995 -9.96874 89.0542
-29.9557 -9.95084 88.8943
-29.7197 -9.96874 89.0542
-29.4829 -9.9867 89.2147
-29.1925 -9.9867 89.2147
-28.9021 -9.9867 89.2147
-28.6634 -10.0047 89.3757
-28.4753 -10.041 89.6995
-28.1833 -10.041 89.6995
-27.9419 -10.0592 89.8623
-27.6997 -10.0775 90.0257
-27.5067 -10.1143 90.3543
-27.2624 -10.1328 90.5194
-27.1164 -10.1886 91.0186
-27.2714 -10.36 92.5498
-26.9701 -10.36 92.5498
-26.7689 -10.3989 92.8971
-26.5163 -10.4185 93.0717
-26.2627 -10.4381 93.247
-25.9592 -10.4381 93.247
-25.5594 -10.3989 92.8971
-25.4 -10.4578 93.4229
-25.3349 -10.5574 94.3126
-25.1718 -10.618 94.8547
-24.9108 -10.6384 95.0367
-24.6962 -10.6794 95.403
-24.4328 -10.7 95.5871
-24.1216 -10.7 95.5871
-23.8105 -10.7 95.5871
-23.4994 -10.7 95.5871
-23.2331 -10.7207 95.772
-23.0104 -10.7624 96.144
-22.6974 -10.7624 96.144
-22.3845 -10.7624 96.144
-22.0715 -10.7624 96.144
-21.7586 -10.7624 96.144
-21.4456 -10.7624 96.144
-21.1738 -10.7833 96.331
-20.9009 -10.8043 96.5188
-20.627 -10.8254 96.7073
-20.3918 -10.8679 97.0865
-20.1549 -10.9107 97.4688
-19.8767 -10.9322 97.661
-19.5975 -10.9538 97.854
-19.3172 -10.9755 98.0478
-19.1497 -11.0631 98.8306
-18.8657 -11.0852 99.0283
-18.6553 -11.1522 99.626
-18.4051 -11.1972 100.029
-18.043 -11.1746 99.8269
-19.1231 -19.0468 170.152
-18.0154 -19.0468 170.152
-17.5825 -19.1786 171.329
-16.9661 -19.1125 170.738
-16.3539 -19.0468 170.152
-15.746 -18.9816 169.569
-15.1422 -18.9168 168.99
-14.5921 -18.9168 168.99
-14.0421 -18.9168 168.99
-13.492 -18.9168 168.99
-12.8542 -18.7885 167.845
-12.3079 -18.7885 167.845
-11.7616 -18.7885 167.845
-11.2152 -18.7885 167.845
-10.6689 -18.7885 167.845
-10.1226 -18.7885 167.845
-13.152 -69.2827 618.927
-11.1374 -69.2827 618.927
-9.01016 -68.4274 611.286
-7.02044 -68.4274 611.286
-4.96938 -67.5929 603.831
-2.96774 -66.7786 596.556
-1.03848 -67.5929 603.831
0.926973 -67.5929 603.831
2.89242 -67.5929 603.831
4.79934 -66.7786 596.556
6.74111 -66.7786 596.556
8.57952 -65.9836 589.454
10.4982 -65.9836 589.454
12.4168 -65.9836 589.454
14.3355 -65.9836 589.454
16.0629 -65.2073 582.519
17.959 -65.2073 582.519
19.6242 -64.4491 575.746
21.2511 -63.7083 569.128
23.1036 -63.7083 569.128
24.6725 -62.9843 562.661
26.2062 -62.2766 556.339
28.017 -62.2766 556.339
30.1668 -62.9843 562.661
31.6388 -62.2766 556.339
33.078 -61.5847 550.157
34.4855 -60.9079 544.111
35.8625 -60.2459 538.197
37.6143 -60.2459 538.197
39.7987 -60.9079 544.111
41.5698 -60.9079 544.111
43.3408 -60.9079 544.111
45.1119 -60.9079 544.111
47.4039 -61.5847 550.157
49.1946 -61.5847 550.157
50.9854 -61.5847 550.157
52.7761 -61.5847 550.157
55.18 -62.2766 556.339
56.3576 -61.5847 550.157
57.5094 -60.9079 544.111
60.6126 -62.2766 556.339
62.4234 -62.2766 556.339
63.5206 -61.5847 550.157
66.0452 -62.2766 556.339
67.1021 -61.5847 550.157
68.8928 -61.5847 550.157
69.9068 -60.9079 544.111
70.8988 -60.2459 538.197
72.6506 -60.2459 538.197
72.0529 -58.3434 521.201
70.7696 -55.9861 500.143
70.2682 -54.3394 485.433
71.1507 -53.8118 480.72
67.8571 -43.6427 389.875
70.2322 -44.341 396.113
70.9539 -43.989 392.969
72.233 -43.989 392.969
73.5121 -43.989 392.969
75.3895 -44.341 396.113
77.2972 -44.6985 399.308
78.597 -44.6985 399.308
79.2575 -44.341 396.113
79.2784 -43.6427 389.875
80.5474 -43.6427 389.875
81.1773 -43.3017 386.829
81.1682 -42.6355 380.878
83.0467 -42.966 383.831
84.2961 -42.966 383.831
84.8874 -42.6355 380.878
135.99 -59.5981 532.41
137.723 -59.5981 532.41
140.971 -60.2459 538.197
141.188 -59.5981 532.41
144.475 -60.2459 538.197
147.834 -60.9079 544.111
149.605 -60.9079 544.111
151.376 -60.9079 544.111
153.147 -60.9079 544.111
153.234 -60.2459 538.197
153.319 -59.5981 532.41
158.46 -60.9079 544.111
160.231 -60.9079 544.111
162.002 -60.9079 544.111
161.993 -60.2459 538.197
163.745 -60.2459 538.197
167.315 -60.9079 544.111
169.086 -60.9079 544.111
149.215 -48.1967 430.558
158.907 -50.8497 454.258
157.496 -49.9335 446.073
160.393 -50.3875 450.129
161.858 -50.3875 450.129
163.323 -50.3875 450.129
164.788 -50.3875 450.129
166.253 -50.3875 450.129
166.208 -49.9335 446.073
166.163 -49.4877 442.091
169.111 -49.9335 446.073
172.114 -50.3875 450.129
173.579 -50.3875 450.129
178.286 -51.3206 458.464
179.778 -51.3206 458.464
181.27 -51.3206 458.464
182.763 -51.3206 458.464
158.62 -34.6414 309.463
153.858 -33.3893 298.278
152.985 -32.9918 294.727
153.034 -32.7966 292.983
153.987 -32.7966 292.983
154.941 -32.7966 292.983
154.978 -32.6036 291.26
154.113 -32.2245 287.873
154.153 -32.0383 286.209
154.194 -31.8541 284.564
153.357 -31.4922 281.33
150.845 -30.7923 275.079
150.902 -30.6222 273.559
150.193 -30.1229 269.099
150.253 -29.9601 267.644
151.945 -30.1229 269.099
-1938.75 346.414 -3094.63
-1948.83 346.414 -3094.63
-1958.9 346.414 -3094.63
-1968.97 346.414 -3094.63
-1979.05 346.414 -3094.63
-1989.12 346.414 -3094.63
-1999.19 346.414 -3094.63
-2009.26 346.414 -3094.63
-2019.34 346.414 -3094.63
-2029.41 346.414 -3094.63
-2039.48 346.414 -3094.63
-2049.56 346.414 -3094.63
-2059.63 346.414 -3094.63
-39.8911 -9.09029 83.6387
-39.2213 -8.99909 82.7996
-38.7574 -8.95416 82.3863
-38.4253 -8.93929 82.2494
-38.0312 -8.90969 81.9771
-37.702 -8.89496 81.8416
-37.6221 -8.93929 82.2494
-37.6043 -8.99909 82.7996
-37.777 -9.10567 83.7803
-37.4409 -9.09029 83.6387
-37.2947 -9.12111 83.9223
-37.2107 -9.16772 84.3512
-36.9992 -9.18337 84.4951
-36.7241 -9.18337 84.4951
-36.4491 -9.18337 84.4951
-36.1741 -9.18337 84.4951
-35.8991 -9.18337 84.4951
-35.6849 -9.19907 84.6395
-35.4701 -9.21482 84.7845
-35.1941 -9.21482 84.7845
-34.9181 -9.21482 84.7845
-34.6422 -9.21482 84.7845
-34.4251 -9.23062 84.9299
-33.8244 -9.60974 88.4181
-33.5366 -9.60974 88.4181
-33.3083 -9.62693 88.5763
-33.02 -9.62693 88.5763
-32.7903 -9.64418 88.735
-32.5015 -9.64418 88.735
-32.2705 -9.6615 88.8943
-31.9812 -9.6615 88.8943
-31.6918 -9.6615 88.8943
-31.3462 -9.64418 88.735
-31.1131 -9.6615 88.8943
-30.8238 -9.6615 88.8943
-30.5893 -9.67887 89.0542
-30.2995 -9.67887 89.0542
-29.9557 -9.6615 88.8943
-29.6664 -9.6615 88.8943
-29.4299 -9.67887 89.0542
-29.14 -9.67887 89.0542
-28.9021 -9.69631 89.2147
-28.6634 -9.71381 89.3757
-28.4753 -9.74901 89.6995
-28.1833 -9.74901 89.6995
-27.9419 -9.7667 89.8623
-27.6997 -9.78446 90.0257
-27.5067 -9.82017 90.3543
-27.3123 -9.85614 90.6852
-27.1664 -9.91059 91.1863
-27.3224 -10.0776 92.7231
-27.0206 -10.0776 92.7231
-26.8193 -10.1155 93.0717
-26.5662 -10.1346 93.247
-26.362 -10.1729 93.5995
-25.9592 -10.1346 93.247
-25.6075 -10.1155 93.0717
-25.4 -10.1537 93.4229
-25.3349 -10.2504 94.3126
-25.1718 -10.3093 94.8547
-24.9108 -10.3291 95.0367
-24.6962 -10.3689 95.403
-24.48 -10.409 95.772
-24.1683 -10.409 95.772
-23.8105 -10.3889 95.5871
-23.4994 -10.3889 95.5871
-23.2331 -10.409 95.772
-23.0104 -10.4494 96.144
-22.6974 -10.4494 96.144
-22.3845 -10.4494 96.144
-22.0715 -10.4494 96.144
-21.7586 -10.4494 96.144
-21.4456 -10.4494 96.144
-21.1738 -10.4698 96.331
-20.9009 -10.4902 96.5188
-20.5868 -10.4902 96.5188
-20.3918 -10.5519 97.0865
-20.1549 -10.5934 97.4688
-19.8767 -10.6143 97.661
-19.5975 -10.6353 97.854
-19.3172 -10.6563 98.0478
-19.188 -10.7629 99.0283
-18.9414 -10.8061 99.426
-18.7306 -10.8716 100.029
-18.4797 -10.9157 100.434
-18.1161 -10.8936 100.231
-17.9538 -18.4296 169.569
-16.9661 -18.5567 170.738
-16.3539 -18.493 170.152
-15.6922 -18.3667 168.99
-15.0907 -18.3043 168.415
-14.5425 -18.3043 168.415
-14.0421 -18.3667 168.99
-13.4461 -18.3043 168.415
-12.8542 -18.2422 167.845
-12.3079 -18.2422 167.845
-11.7616 -18.2422 167.845
-11.1773 -18.1806 167.277
-10.6689 -18.2422 167.845
-13.152 -67.2682 618.927
-10.9999 -66.4377 611.286
-9.01016 -66.4377 611.286
-6.93483 -65.6275 603.831
-4.9095 -64.8368 596.556
-2.9324 -64.0649 589.454
-1.02597 -64.8368 596.556
0.915804 -64.8368 596.556
2.85757 -64.8368 596.556
4.74221 -64.0649 589.454
6.66086 -64.0649 589.454
8.57952 -64.0649 589.454
10.4982 -64.0649 589.454
12.4168 -64.0649 589.454
14.1668 -63.3112 582.519
16.0629 -63.3112 582.519
17.959 -63.3112 582.519
19.6242 -62.575 575.746
21.2511 -61.8558 569.128
23.1036 -61.8558 569.128
24.6725 -61.1529 562.661
26.2062 -60.4658 556.339
28.017 -60.4658 556.339
29.8279 -60.4658 556.339
31.6388 -60.4658 556.339
33.078 -59.7939 550.157
34.4855 -59.1368 544.111
35.8625 -58.4941 538.197
37.6143 -58.4941 538.197
39.7987 -59.1368 544.111
42.0317 -59.7939 550.157
43.8224 -59.7939 550.157
45.1119 -59.1368 544.111
46.883 -59.1368 544.111
49.1946 -59.7939 550.157
50.9854 -59.7939 550.157
52.1962 -59.1368 544.111
54.5669 -59.7939 550.157
55.7383 -59.1368 544.111
57.5094 -59.1368 544.111
59.9391 -59.7939 550.157
61.7298 -59.7939 550.157
62.8226 -59.1368 544.111
65.3113 -59.7939 550.157
66.3647 -59.1368 544.111
68.1357 -59.1368 544.111
68.4034 -57.8651 532.41
69.3903 -57.2495 526.746
70.3564 -56.6469 521.201
69.8472 -54.9128 505.246
70.0619 -53.8145 495.141
69.586 -52.2471 480.72
71.1507 -52.2471 480.72
68.3957 -42.7099 392.969
70.2322 -43.0516 396.113
70.9539 -42.7099 392.969
72.233 -42.7099 392.969
73.5121 -42.7099 392.969
75.3895 -43.0516 396.113
76.6789 -43.0516 396.113
78.597 -43.3988 399.308
78.6285 -42.7099 392.969
79.2784 -42.3736 389.875
80.5474 -42.3736 389.875
80.548 -41.7167 383.831
81.1682 -41.3958 380.878
83.0467 -41.7167 383.831
84.2961 -41.7167 383.831
84.8874 -41.3958 380.878
135.99 -57.8651 532.41
137.723 -57.8651 532.41
140.971 -58.4941 538.197
141.188 -57.8651 532.41
146.063 -59.1368 544.111
147.834 -59.1368 544.111
149.605 -59.1368 544.111
151.376 -59.1368 544.111
153.147 -59.1368 544.111
153.234 -58.4941 538.197
153.319 -57.8651 532.41
158.46 -59.1368 544.111
160.231 -59.1368 544.111
162.002 -59.1368 544.111
161.993 -58.4941 538.197
163.745 -58.4941 538.197
167.315 -59.1368 544.111
169.086 -59.1368 544.111
160.378 -49.8283 458.464
158.928 -48.9223 450.129
160.393 -48.9223 450.129
163.343 -49.3711 454.258
163.323 -48.9223 450.129
166.3 -49.3711 454.258
167.779 -49.3711 454.258
167.719 -48.9223 450.129
169.184 -48.9223 450.129
170.649 -48.9223 450.129
172.114 -48.9223 450.129
175.172 -49.3711 454.258
179.952 -50.294 462.749
181.458 -50.294 462.749
181.27 -49.8283 458.464
153.813 -32.6149 300.086
152.026 -32.0325 294.727
151.186 -31.6556 291.26
152.134 -31.6556 291.26
153.082 -31.6556 291.26
154.03 -31.6556 291.26
154.071 -31.4705 289.556
154.113 -31.2875 287.873
153.268 -30.9279 284.564
154.194 -30.9279 284.564
153.357 -30.5764 281.33
150.845 -29.897 275.079
150.902 -29.7318 273.559
151.792 -29.7318 273.559
151.014 -29.4068 270.569
151.069 -29.247 269.099
152.775 -29.4068 270.569
154.537 -29.4068 270.569
-1938.75 336.341 -3094.63
-1948.83 336.341 -3094.63
-1958.9 336.341 -3094.63
-1968.97 336.341 -3094.63
-1979.05 336.341 -3094.63
-1989.12 336.341 -3094.63
-1999.19 336.341 -3094.63
-2009.26 336.341 -3094.63
-2019.34 336.341 -3094.63
-2029.41 336.341 -3094.63
-2039.48 336.341 -3094.63
-2049.56 336.341 -3094.63
-2059.63 336.341 -3094.63
-39.9586 -8.83297 83.7803
-39.2213 -8.72958 82.7996
-38.7574 -8.686 82.3863
-38.4253 -8.67157 82.2494
-38.0312 -8.64286 81.9771
-37.702 -8.62857 81.8416
-37.5597 -8.65719 82.113
-37.6043 -8.72958 82.7996
-37.777 -8.83297 83.7803
-37.5043 -8.83297 83.7803
-37.358 -8.86296 84.0648
-37.2107 -8.89316 84.3512
-36.9992 -8.90834 84.4951
-36.7241 -8.90834 84.4951
-36.4491 -8.90834 84.4951
-36.1741 -8.90834 84.4951
-35.8991 -8.90834 84.4951
-35.6849 -8.92357 84.6395
-35.4701 -8.93885 84.7845
-35.1339 -8.92357 84.6395
-34.8584 -8.92357 84.6395
-34.6422 -8.93885 84.7845
-34.4251 -8.95418 84.9299
-33.8244 -9.32194 88.4181
-33.5366 -9.32194 88.4181
-33.3083 -9.33862 88.5763
-33.02 -9.33862 88.5763
-32.7903 -9.35535 88.735
-32.5015 -9.35535 88.735
-32.2127 -9.35535 88.735
-31.9812 -9.37215 88.8943
-31.6918 -9.37215 88.8943
-31.3462 -9.35535 88.735
-31.1131 -9.37215 88.8943
-30.8238 -9.37215 88.8943
-30.5344 -9.37215 88.8943
-30.2995 -9.389 89.0542
-29.9557 -9.37215 88.8943
-29.6664 -9.37215 88.8943
-29.4299 -9.389 89.0542
-29.14 -9.389 89.0542
-28.9021 -9.40592 89.2147
-28.6634 -9.4229 89.3757
-28.4753 -9.45704 89.6995
-28.1833 -9.45704 89.6995
-27.9419 -9.4742 89.8623
-27.6997 -9.49143 90.0257
-27.5067 -9.52607 90.3543
-27.3123 -9.56096 90.6852
-27.2668 -9.64933 91.5234
-27.3737 -9.79416 92.8971
-27.0713 -9.79416 92.8971
-26.8698 -9.83105 93.247
-26.6164 -9.8496 93.4229
-26.362 -9.86822 93.5995
-25.9592 -9.83105 93.247
-25.6075 -9.81257 93.0717
-25.4 -9.8496 93.4229
-25.3349 -9.9434 94.3126
-25.1718 -10.0005 94.8547
-24.9108 -10.0197 95.0367
-24.6962 -10.0584 95.403
-24.48 -10.0973 95.772
-24.1683 -10.0973 95.772
-23.8105 -10.0778 95.5871
-23.4994 -10.0778 95.5871
-23.2331 -10.0973 95.772
-23.0104 -10.1365 96.144
-22.6974 -10.1365 96.144
-22.3845 -10.1365 96.144
-22.0715 -10.1365 96.144
-21.7586 -10.1365 96.144
-21.4456 -10.1365 96.144
-21.1327 -10.1365 96.144
-20.9009 -10.176 96.5188
-20.5868 -10.176 96.5188
-20.3918 -10.2359 97.0865
-20.1153 -10.256 97.2773
-19.8767 -10.2964 97.661
-19.6363 -10.3372 98.0478
-19.3555 -10.3577 98.2423
-19.2265 -10.4615 99.2267
-19.0178 -10.5248 99.8269
-18.8066 -10.5888 100.434
-18.5173 -10.6103 100.638
-18.1897 -10.6103 100.638
-17.8985 -10.6319 100.843
-17.348 -10.6973 101.463
-16.983 -10.6754 101.256
-15.746 -17.8777 169.569
-15.1422 -17.8167 168.99
-14.5921 -17.8167 168.99
-14.0421 -17.8167 168.99
-13.492 -17.8167 168.99
-12.8542 -17.6959 167.845
-12.3079 -17.6959 167.845
-11.7616 -17.6959 167.845
-10.9999 -64.448 611.286
-8.90028 -63.662 603.831
-6.85127 -62.895 596.556
-4.9095 -62.895 596.556
-2.9324 -62.1463 589.454
-1.01375 -62.1463 589.454
0.915804 -62.895 596.556
2.85757 -62.895 596.556
4.74221 -62.1463 589.454
6.66086 -62.1463 589.454
8.57952 -62.1463 589.454
10.3747 -61.4151 582.519
12.2707 -61.4151 582.519
14.0021 -60.701 575.746
15.8761 -60.701 575.746
17.7502 -60.701 575.746
19.3986 -60.0033 569.128
21.0096 -59.3214 562.661
22.5844 -58.6549 556.339
24.3953 -58.6549 556.339
25.915 -58.0032 550.157
27.7057 -58.0032 550.157
29.8279 -58.6549 556.339
31.2872 -58.0032 550.157
33.078 -58.0032 550.157
34.1107 -56.7422 538.197
35.4769 -56.1321 532.41
37.2099 -56.1321 532.41
39.7987 -57.3658 544.111
41.5698 -57.3658 544.111
43.3408 -57.3658 544.111
45.1119 -57.3658 544.111
46.883 -57.3658 544.111
48.654 -57.3658 544.111
50.4251 -57.3658 544.111
51.6288 -56.7422 538.197
53.9672 -57.3658 544.111
55.7383 -57.3658 544.111
56.8843 -56.7422 538.197
59.2804 -57.3658 544.111
61.0515 -57.3658 544.111
62.1397 -56.7422 538.197
64.5936 -57.3658 544.111
65.6433 -56.7422 538.197
67.3951 -56.7422 538.197
68.4034 -56.1321 532.41
69.3903 -55.535 526.746
68.9057 -53.8174 510.455
69.1416 -52.7302 500.143
68.6881 -51.1793 485.433
68.9169 -50.1951 476.097
70.4666 -50.1951 476.097
67.8571 -41.1046 389.875
69.6748 -41.4308 392.969
70.3952 -41.1046 389.875
72.233 -41.4308 392.969
73.5121 -41.4308 392.969
74.7912 -41.4308 392.969
76.6789 -41.7623 396.113
77.9682 -41.7623 396.113
78.6285 -41.4308 392.969
78.6591 -40.7835 386.829
79.9182 -40.7835 386.829
79.9284 -40.156 380.878
80.5485 -39.8495 377.971
82.4079 -40.156 380.878
83.0091 -39.8495 377.971
84.2394 -39.8495 377.971
137.723 -56.1321 532.41
140.971 -56.7422 538.197
141.188 -56.1321 532.41
146.063 -57.3658 544.111
147.834 -57.3658 544.111
149.605 -57.3658 544.111
153.058 -58.0032 550.157
153.147 -57.3658 544.111
153.234 -56.7422 538.197
154.986 -56.7422 538.197
158.46 -57.3658 544.111
162.011 -58.0032 550.157
163.802 -58.0032 550.157
163.773 -57.3658 544.111
167.384 -58.0032 550.157
169.174 -58.0032 550.157
170.965 -58.0032 550.157
160.386 -47.8925 454.258
161.864 -47.8925 454.258
163.343 -47.8925 454.258
164.821 -47.8925 454.258
166.3 -47.8925 454.258
169.332 -48.336 458.464
169.257 -47.8925 454.258
170.736 -47.8925 454.258
172.214 -47.8925 454.258
173.693 -47.8925 454.258
176.794 -48.336 458.464
179.952 -48.7877 462.749
181.458 -48.7877 462.749
148.341 -30.7076 291.26
151.067 -31.0731 294.727
150.238 -30.7076 291.26
150.301 -30.528 289.556
151.244 -30.528 289.556
152.186 -30.528 289.556
153.129 -30.528 289.556
153.176 -30.3505 287.873
153.222 -30.1751 286.209
152.392 -29.8302 282.938
153.313 -29.8302 282.938
152.491 -29.4931 279.741
150.845 -29.0016 275.079
150.902 -28.8414 273.559
151.792 -28.8414 273.559
151.014 -28.5262 270.569
151.069 -28.3711 269.099
152.775 -28.5262 270.569
151.995 -28.2178 267.644
153.697 -28.3711 269.099
-1938.75 326.268 -3094.63
-1948.83 326.268 -3094.63
-1958.9 326.268 -3094.63
-1968.97 326.268 -3094.63
-1979.05 326.268 -3094.63
-1989.12 326.268 -3094.63
-1999.19 326.268 -3094.63
-2009.26 326.268 -3094.63
-2019.34 326.268 -3094.63
-2029.41 326.268 -3094.63
-2039.48 326.268 -3094.63
-2049.56 326.268 -3094.63
-2059.63 326.268 -3094.63
-39.9586 -8.56027 83.7803
-39.287 -8.47424 82.9383
-38.822 -8.43187 82.5236
-38.4892 -8.41784 82.3863
-38.0312 -8.37603 81.9771
-37.702 -8.36218 81.8416
-37.5597 -8.38992 82.113
-37.6043 -8.46007 82.7996
-37.777 -8.56027 83.7803
-37.5678 -8.57478 83.9223
-37.4215 -8.60394 84.2077
-37.2742 -8.63331 84.4951
-37.0624 -8.64807 84.6395
-36.7869 -8.64807 84.6395
-36.4491 -8.63331 84.4951
-36.1741 -8.63331 84.4951
-35.8991 -8.63331 84.4951
-35.6849 -8.64807 84.6395
-35.4701 -8.66288 84.7845
-35.1941 -8.66288 84.7845
-34.9181 -8.66288 84.7845
-34.6422 -8.66288 84.7845
-34.4251 -8.67773 84.9299
-33.8244 -9.03414 88.4181
-33.5366 -9.03414 88.4181
-33.2488 -9.03414 88.4181
-32.961 -9.03414 88.4181
-32.7317 -9.0503 88.5763
-32.5015 -9.06652 88.735
-32.2127 -9.06652 88.735
-31.9812 -9.0828 88.8943
-31.6918 -9.0828 88.8943
-31.3462 -9.06652 88.735
-31.0574 -9.06652 88.735
-30.7685 -9.06652 88.735
-30.5344 -9.0828 88.8943
-30.2451 -9.0828 88.8943
-29.9021 -9.06652 88.735
-29.6132 -9.06652 88.735
-29.377 -9.0828 88.8943
-29.14 -9.09914 89.0542
-28.8501 -9.09914 89.0542
-28.6634 -9.13198 89.3757
-28.4238 -9.1485 89.5373
-28.1323 -9.1485 89.5373
-27.8913 -9.16507 89.6995
-27.6494 -9.1817 89.8623
-27.4566 -9.21515 90.1897
-27.2624 -9.24885 90.5194
-27.2165 -9.33417 91.3545
-27.3737 -9.49178 92.8971
-27.0713 -9.49178 92.8971
-26.8193 -9.50962 93.0717
-26.6164 -9.54551 93.4229
-26.3123 -9.54551 93.4229
-25.9592 -9.52753 93.247
-25.6075 -9.50962 93.0717
-25.4 -9.54551 93.4229
-25.3349 -9.63642 94.3126
-25.1237 -9.67327 94.6733
-24.863 -9.6918 94.8547
-24.6487 -9.72908 95.2195
-24.4328 -9.76664 95.5871
-24.1216 -9.76664 95.5871
-23.8105 -9.76664 95.5871
-23.4541 -9.74782 95.403
-23.2331 -9.78553 95.772
-22.9658 -9.80449 95.9576
-22.6534 -9.80449 95.9576
-22.3845 -9.82353 96.144
-22.0715 -9.82353 96.144
-21.7586 -9.82353 96.144
-21.4456 -9.82353 96.144
-21.1327 -9.82353 96.144
-20.9009 -9.86183 96.5188
-20.5868 -9.86183 96.5188
-20.3519 -9.90043 96.8966
-20.1153 -9.93933 97.2773
-19.8767 -9.97854 97.661
-19.6753 -10.0379 98.2423
-19.394 -10.0579 98.4377
-19.3038 -10.1793 99.626
-19.0562 -10.2204 100.029
-18.8449 -10.2828 100.638
-18.555 -10.3037 100.843
-18.2267 -10.3037 100.843
-17.935 -10.3247 101.049
-17.348 -10.367 101.463
-16.983 -10.3458 101.256
-16.6194 -10.3247 101.049
-14.5425 -17.2079 168.415
-13.9943 -17.2079 168.415
-13.4461 -17.2079 168.415
-12.8108 -17.0916 167.277
-12.2663 -17.0916 167.277
-11.7218 -17.0916 167.277
-11.1374 -63.239 618.927
-8.90028 -61.6966 603.831
-6.85127 -60.9532 596.556
-4.9095 -60.9532 596.556
-2.9324 -60.2276 589.454
-1.01375 -60.2276 589.454
0.915804 -60.9532 596.556
2.82356 -60.2276 589.454
4.74221 -60.2276 589.454
6.66086 -60.2276 589.454
8.47858 -59.5191 582.519
10.3747 -59.5191 582.519
12.2707 -59.5191 582.519
14.0021 -58.827 575.746
15.8761 -58.827 575.746
17.7502 -58.827 575.746
19.3986 -58.1508 569.128
21.0096 -57.49 562.661
22.5844 -56.844 556.339
24.3953 -56.844 556.339
25.6302 -55.5947 544.111
27.4013 -55.5947 544.111
29.4965 -56.2124 550.157
31.2872 -56.2124 550.157
32.7145 -55.5947 544.111
33.7439 -54.3991 532.41
35.0995 -53.8204 526.746
36.814 -53.8204 526.746
39.7987 -55.5947 544.111
42.0317 -56.2124 550.157
43.3408 -55.5947 544.111
44.6216 -54.9904 538.197
46.883 -55.5947 544.111
48.654 -55.5947 544.111
50.4251 -55.5947 544.111
51.6288 -54.9904 538.197
54.5669 -56.2124 550.157
55.7383 -55.5947 544.111
56.8843 -54.9904 538.197
59.2804 -55.5947 544.111
61.7298 -56.2124 550.157
62.8226 -55.5947 544.111
64.5936 -55.5947 544.111
66.3647 -55.5947 544.111
68.1357 -55.5947 544.111
69.147 -54.9904 538.197
70.1364 -54.3991 532.41
70.3564 -53.2539 521.201
69.1416 -51.1022 500.143
69.3682 -50.0903 490.239
69.586 -49.1177 480.72
68.7536 -41.1311 402.554
67.327 -39.5244 386.829
69.1262 -39.8356 389.875
70.3952 -39.8356 389.875
71.6642 -39.8356 389.875
72.9333 -39.8356 389.875
74.2023 -39.8356 389.875
76.0703 -40.1517 392.969
77.3494 -40.1517 392.969
78.0094 -39.8356 389.875
78.0493 -39.218 383.831
79.2987 -39.218 383.831
79.3183 -38.6192 377.971
79.9383 -38.3267 375.107
81.1593 -38.3267 375.107
82.3802 -38.3267 375.107
83.6012 -38.3267 375.107
137.723 -54.3991 532.41
140.971 -54.9904 538.197
141.188 -54.3991 532.41
146.063 -55.5947 544.111
147.834 -55.5947 544.111
149.605 -55.5947 544.111
153.058 -56.2124 550.157
153.147 -55.5947 544.111
153.234 -54.9904 538.197
154.986 -54.9904 538.197
158.46 -55.5947 544.111
162.011 -56.2124 550.157
165.643 -56.844 556.339
163.773 -55.5947 544.111
167.384 -56.2124 550.157
160.386 -46.4139 454.258
163.363 -46.8437 458.464
164.855 -46.8437 458.464
164.821 -46.4139 454.258
167.84 -46.8437 458.464
169.332 -46.8437 458.464
170.824 -46.8437 458.464
172.317 -46.8437 458.464
173.809 -46.8437 458.464
175.301 -46.8437 458.464
178.446 -47.2815 462.749
181.65 -47.7275 467.115
183.17 -47.7275 467.115
147.474 -29.5855 289.556
149.289 -29.7595 291.26
149.359 -29.5855 289.556
149.428 -29.4135 287.873
150.365 -29.4135 287.873
151.302 -29.4135 287.873
152.239 -29.4135 287.873
152.29 -29.2435 286.209
152.341 -29.0754 284.564
151.526 -28.745 281.33
152.442 -28.745 281.33
151.634 -28.422 278.169
150.845 -28.1062 275.079
150.902 -27.9509 273.559
150.958 -27.7974 272.056
151.014 -27.6455 270.569
151.069 -27.4952 269.099
152.775 -27.6455 270.569
151.995 -27.3466 267.644
153.697 -27.4952 269.099
153.737 -27.3466 267.644
-1948.83 316.195 -3094.63
-1958.9 316.195 -3094.63
-1968.97 316.195 -3094.63
-1979.05 316.195 -3094.63
-1989.12 316.195 -3094.63
-1999.19 316.195 -3094.63
-2009.26 316.195 -3094.63
-2019.34 316.195 -3094.63
-2029.41 316.195 -3094.63
-2039.48 316.195 -3094.63
-2049.56 316.195 -3094.63
-2059.63 316.195 -3094.63
-40.0943 -8.31571 84.0648
-39.3529 -8.21804 83.0774
-38.822 -8.16325 82.5236
-38.5534 -8.16325 82.5236
-38.1576 -8.13613 82.2494
-37.7644 -8.10919 81.9771
-37.5597 -8.12264 82.113
-37.6673 -8.20428 82.9383
-37.841 -8.30161 83.9223
-37.5678 -8.30161 83.9223
-37.4853 -8.34404 84.3512
-37.2742 -8.35828 84.4951
-37.0624 -8.37257 84.6395
-36.7869 -8.37257 84.6395
-36.5114 -8.37257 84.6395
-36.1741 -8.35828 84.4951
-35.9604 -8.37257 84.6395
-35.6849 -8.37257 84.6395
-35.4701 -8.3869 84.7845
-35.1339 -8.37257 84.6395
-34.8584 -8.37257 84.6395
-34.4251 -8.40129 84.9299
-33.7641 -8.73075 88.2605
-33.4769 -8.73075 88.2605
-33.2488 -8.74634 88.4181
-32.961 -8.74634 88.4181
-32.6732 -8.74634 88.4181
-32.4434 -8.76199 88.5763
-32.1551 -8.76199 88.5763
-31.9239 -8.77769 88.735
-31.635 -8.77769 88.735
-31.2901 -8.76199 88.5763
-31.0574 -8.77769 88.735
-30.7685 -8.77769 88.735
-30.4797 -8.77769 88.735
-30.1909 -8.77769 88.735
-29.9021 -8.77769 88.735
-29.5602 -8.76199 88.5763
